ply
format ascii 1.0
element face 0
property list uchar int vertex_indices
element vertex 1313
property float x
property float y
property float z
property uchar diffuse_red
property uchar diffuse_green
property uchar diffuse_blue
end_header
-0.04201 0.37561 -0.90082 92 88 91
-0.04197 0.37487 -0.90079 91 88 92
-0.04193 0.37413 -0.90076 91 88 90
-0.04062 0.37496 -0.90008 85 84 84
-0.03994 0.37501 -0.89991 78 77 74
-0.03922 0.37432 -0.89957 73 72 70
-0.03853 0.37515 -0.90013 79 74 74
-0.03783 0.37522 -0.90015 90 84 78
-0.03707 0.37533 -0.90092 99 91 83
-0.03634 0.37542 -0.90134 105 95 90
0.07584 0.37891 -0.76762 135 134 118
0.07602 0.37889 -0.76703 155 150 135
0.07653 0.37839 -0.76679 160 156 140
-0.04790 0.37392 -0.90759 156 151 143
-0.04855 0.37312 -0.90786 163 154 146
-0.04588 0.37401 -0.90563 123 117 111
-0.04521 0.37403 -0.90490 109 104 103
-0.04453 0.37408 -0.90459 100 96 96
-0.04381 0.37338 -0.90425 98 91 93
-0.04115 0.37428 -0.90235 87 86 87
-0.04047 0.37433 -0.90202 81 81 79
-0.03980 0.37436 -0.90154 75 75 69
-0.03908 0.37367 -0.90120 71 71 71
-0.03841 0.37448 -0.90137 76 73 75
-0.03771 0.37455 -0.90137 88 82 76
-0.03696 0.37465 -0.90202 99 89 77
-0.03626 0.37471 -0.90180 105 94 84
0.07651 0.37847 -0.76833 135 133 116
0.07709 0.37851 -0.76821 153 151 135
0.07761 0.37801 -0.76796 160 156 137
-0.04787 0.37316 -0.90737 158 150 144
-0.04852 0.37236 -0.90764 166 155 147
-0.04716 0.37323 -0.90761 153 146 139
-0.04646 0.37331 -0.90791 144 136 129
-0.04582 0.37329 -0.90615 124 119 112
-0.04514 0.37333 -0.90563 110 105 105
-0.04446 0.37337 -0.90531 101 96 97
-0.04374 0.37267 -0.90496 98 89 92
-0.04173 0.37355 -0.90379 89 85 86
-0.04246 0.37425 -0.90413 93 88 91
-0.04242 0.37350 -0.90409 93 87 86
-0.04238 0.37276 -0.90406 93 86 88
-0.04107 0.37358 -0.90320 84 81 82
-0.04039 0.37363 -0.90280 76 76 71
-0.03967 0.37293 -0.90246 71 69 62
-0.03973 0.37365 -0.90208 72 72 66
-0.03830 0.37380 -0.90240 73 72 75
-0.03762 0.37384 -0.90206 86 80 77
-0.03689 0.37393 -0.90237 98 89 77
-0.03623 0.37396 -0.90173 104 93 81
0.07740 0.37805 -0.76929 137 136 119
0.07789 0.37809 -0.76907 154 152 131
0.07842 0.37758 -0.76882 160 155 137
-0.04784 0.37239 -0.90700 161 151 143
-0.04849 0.37160 -0.90728 166 157 147
-0.04714 0.37246 -0.90712 158 148 140
-0.04643 0.37255 -0.90758 146 139 131
-0.04575 0.37258 -0.90698 126 120 113
-0.04507 0.37262 -0.90646 109 105 104
-0.04439 0.37266 -0.90603 101 96 98
-0.04098 0.37288 -0.90399 82 76 80
-0.04030 0.37292 -0.90365 75 71 66
-0.03958 0.37223 -0.90331 71 67 62
-0.03895 0.37300 -0.90271 70 69 69
-0.03891 0.37226 -0.90268 69 66 65
-0.03824 0.37307 -0.90271 72 70 74
-0.03759 0.37310 -0.90199 84 79 80
-0.03686 0.37318 -0.90230 96 87 83
-0.03613 0.37247 -0.90196 101 91 85
-0.03625 0.37317 -0.90092 102 91 83
0.07831 0.37764 -0.77029 140 135 121
0.07882 0.37767 -0.77007 157 151 133
0.07934 0.37716 -0.76982 157 155 137
-0.04779 0.37167 -0.90738 164 153 144
-0.04844 0.37087 -0.90766 167 157 145
-0.04708 0.37174 -0.90772 158 147 142
-0.04638 0.37182 -0.90795 147 139 132
-0.04566 0.37190 -0.90846 128 122 116
-0.04495 0.37197 -0.90855 112 106 105
-0.04427 0.37200 -0.90781 103 96 100
-0.04361 0.37202 -0.90697 98 89 94
-0.04295 0.37282 -0.90669 97 88 89
-0.04292 0.37207 -0.90666 93 87 89
-0.04227 0.37208 -0.90550 88 85 87
-0.04160 0.37211 -0.90489 84 79 85
-0.04091 0.37216 -0.90463 81 73 76
-0.04018 0.37146 -0.90429 76 71 66
-0.04021 0.37222 -0.90452 76 69 64
-0.03948 0.37152 -0.90418 70 67 65
-0.03813 0.37238 -0.90382 72 68 74
-0.03878 0.37158 -0.90409 67 65 67
-0.03749 0.37239 -0.90287 84 77 83
-0.03676 0.37247 -0.90313 96 87 87
-0.03557 0.37244 -0.90004 108 96 88
-0.03482 0.37253 -0.90059 121 109 97
-0.03403 0.37265 -0.90157 129 118 102
-0.03331 0.37194 -0.90123 133 122 103
0.07891 0.37717 -0.77092 141 137 122
0.07915 0.37717 -0.77040 156 153 137
0.07968 0.37666 -0.77015 157 158 141
-0.04774 0.37094 -0.90790 163 154 144
-0.04839 0.37014 -0.90818 167 156 140
-0.04701 0.37103 -0.90864 156 149 143
-0.04630 0.37111 -0.90899 147 139 133
-0.04557 0.37120 -0.90973 131 124 118
-0.04486 0.37127 -0.90985 112 107 104
-0.04419 0.37129 -0.90875 102 98 97
-0.04354 0.37130 -0.90766 97 91 94
-0.04288 0.37132 -0.90661 92 87 88
-0.04223 0.37133 -0.90551 85 82 84
-0.04156 0.37137 -0.90492 81 77 80
-0.04088 0.37141 -0.90450 78 73 73
-0.04015 0.37071 -0.90416 74 71 64
-0.03808 0.37163 -0.90398 71 67 73
-0.03873 0.37083 -0.90426 67 68 67
-0.03804 0.37088 -0.90395 68 67 70
-0.03742 0.37166 -0.90328 84 75 82
-0.03672 0.37172 -0.90317 95 86 86
-0.03617 0.37168 -0.90094 101 92 85
-0.03549 0.37173 -0.90058 107 96 88
-0.03475 0.37181 -0.90094 120 109 97
0.07865 0.37658 -0.77057 140 140 122
0.07903 0.37660 -0.77021 155 155 141
0.07956 0.37609 -0.76996 158 158 141
-0.04768 0.37022 -0.90851 162 152 137
-0.04764 0.36946 -0.90848 161 151 136
-0.04623 0.37039 -0.90980 149 140 129
-0.04549 0.37049 -0.91075 134 126 116
-0.04478 0.37055 -0.91077 112 108 99
-0.04413 0.37056 -0.90938 103 99 92
-0.04347 0.37057 -0.90816 98 91 90
-0.04284 0.37056 -0.90656 91 86 87
-0.04223 0.37055 -0.90479 83 80 81
-0.04158 0.37057 -0.90371 79 75 76
-0.04086 0.36987 -0.90337 73 71 63
-0.04092 0.37060 -0.90303 76 72 69
-0.04020 0.36990 -0.90268 72 69 62
-0.03735 0.37093 -0.90365 78 72 74
-0.03801 0.37013 -0.90393 67 66 69
-0.03667 0.37097 -0.90322 93 85 79
-0.03608 0.37097 -0.90160 100 91 82
-0.03539 0.37102 -0.90133 106 96 87
0.07845 0.37601 -0.77028 141 144 126
0.07838 0.37597 -0.76941 153 155 139
0.07891 0.37546 -0.76916 158 157 137
-0.04613 0.36970 -0.91141 150 142 126
-0.04540 0.36978 -0.91195 134 127 112
-0.04471 0.36982 -0.91150 116 110 97
-0.04407 0.36981 -0.90972 105 99 90
-0.04343 0.36982 -0.90832 98 91 88
-0.04281 0.36981 -0.90650 90 83 85
-0.04220 0.36979 -0.90450 83 77 79
-0.04148 0.36909 -0.90416 76 73 69
-0.04158 0.36979 -0.90301 77 74 70
-0.04086 0.36910 -0.90267 73 73 68
-0.03730 0.37019 -0.90380 76 73 72
-0.03661 0.37024 -0.90362 90 85 76
-0.03598 0.37025 -0.90238 100 90 79
-0.03528 0.37031 -0.90223 107 94 86
0.07834 0.37544 -0.77010 142 142 124
0.07798 0.37537 -0.76889 153 153 132
-0.04607 0.36896 -0.91209 150 143 126
-0.04533 0.36905 -0.91281 134 128 111
-0.04464 0.36908 -0.91217 119 112 99
-0.04405 0.36905 -0.90946 106 99 91
-0.04340 0.36905 -0.90797 96 88 84
-0.04280 0.36903 -0.90584 88 81 80
-0.04207 0.36833 -0.90550 80 75 75
-0.04221 0.36901 -0.90353 81 75 75
-0.04149 0.36831 -0.90319 77 73 74
-0.03791 0.36941 -0.90477 68 68 70
-0.03864 0.37012 -0.90511 68 67 66
-0.03860 0.36937 -0.90508 68 66 66
-0.03856 0.36861 -0.90504 67 66 65
-0.03721 0.36947 -0.90461 76 76 75
-0.03648 0.36954 -0.90480 89 86 78
0.07748 0.37479 -0.76906 145 141 125
0.07712 0.37472 -0.76786 154 152 132
0.07764 0.37422 -0.76761 158 154 134
-0.04601 0.36821 -0.91254 151 144 129
-0.04529 0.36828 -0.91280 136 130 117
-0.03791 0.36864 -0.90415 68 67 68
-0.03856 0.36784 -0.90442 67 66 63
-0.03787 0.36789 -0.90411 67 67 66
-0.03718 0.36871 -0.90446 75 74 72
-0.03644 0.36878 -0.90481 89 85 77
-0.03572 0.36884 -0.90486 99 91 82
-0.03498 0.36891 -0.90515 103 95 87
-0.03421 0.36900 -0.90591 114 105 96
-0.03342 0.36909 -0.90668 126 116 106
-0.03268 0.36838 -0.90633 131 120 108
0.07638 0.37412 -0.76774 146 141 128
0.07690 0.37361 -0.76749 158 151 137
0.07616 0.37407 -0.76670 156 152 135
0.07667 0.37357 -0.76646 158 151 135
-0.04522 0.36754 -0.91356 137 132 122
-0.04224 0.36745 -0.90141 80 75 76
-0.04157 0.36750 -0.90110 78 73 73
-0.04153 0.36676 -0.90107 78 73 67
-0.03712 0.36797 -0.90472 74 71 69
-0.03778 0.36716 -0.90500 66 65 66
-0.03636 0.36804 -0.90533 88 81 75
-0.03563 0.36811 -0.90559 98 90 80
-0.03489 0.36818 -0.90588 102 95 84
-0.03410 0.36827 -0.90673 111 104 92
-0.03336 0.36833 -0.90688 124 115 102
-0.03262 0.36762 -0.90654 131 119 107
0.10357 0.37901 -0.88482 126 123 100
0.10282 0.37809 -0.88514 125 118 91
0.10593 0.37927 -0.88709 139 138 118
0.10823 0.37952 -0.88922 146 147 126
0.10900 0.38045 -0.88890 146 146 127
0.10904 0.37957 -0.88886 145 147 128
0.07558 0.37348 -0.76676 147 143 129
-0.04585 0.36675 -0.91472 151 147 140
-0.04454 0.36678 -0.91176 119 116 106
-0.04226 0.36668 -0.90034 80 73 70
-0.04155 0.36599 -0.90000 76 72 61
-0.03706 0.36722 -0.90506 71 68 69
-0.03771 0.36642 -0.90533 64 63 63
-0.03626 0.36732 -0.90628 85 78 75
-0.03552 0.36738 -0.90651 97 89 79
-0.03479 0.36745 -0.90663 102 95 81
-0.03404 0.36752 -0.90702 110 103 88
-0.03327 0.36759 -0.90758 123 114 101
-0.03253 0.36688 -0.90723 131 119 107
0.09544 0.37900 -0.94596 154 152 128
0.09446 0.37995 -0.94642 153 152 127
0.09451 0.37894 -0.94637 153 152 129
0.09539 0.38001 -0.94600 152 151 122
0.09631 0.38007 -0.94559 151 152 122
0.09578 0.37899 -0.94428 153 153 131
0.09665 0.38006 -0.94391 150 152 127
0.10507 0.37833 -0.88722 125 120 93
0.10431 0.37740 -0.88754 126 117 91
0.10511 0.37746 -0.88718 126 119 94
0.10705 0.37853 -0.88885 131 131 106
0.10894 0.37872 -0.89028 141 143 117
0.11064 0.37888 -0.89139 143 146 120
0.11141 0.37983 -0.89106 143 146 128
0.11145 0.37894 -0.89102 141 145 123
0.07474 0.37286 -0.76575 148 143 128
0.07462 0.37282 -0.76484 157 150 136
0.07510 0.37286 -0.76462 158 151 138
0.07513 0.37233 -0.76460 159 153 134
-0.04651 0.36593 -0.91522 159 153 148
-0.04718 0.36511 -0.91551 163 155 147
-0.04580 0.36599 -0.91523 153 145 139
-0.04509 0.36604 -0.91492 141 135 128
-0.04446 0.36604 -0.91270 120 119 112
-0.04227 0.36592 -0.89942 77 72 63
-0.04156 0.36523 -0.89908 75 71 61
-0.03703 0.36647 -0.90495 68 66 66
-0.03768 0.36566 -0.90523 63 60 62
-0.03623 0.36655 -0.90607 83 77 73
-0.03546 0.36663 -0.90676 97 88 80
-0.03473 0.36669 -0.90685 102 94 85
-0.03397 0.36676 -0.90735 109 101 92
-0.03323 0.36683 -0.90755 122 112 103
0.09775 0.37856 -0.96351 154 155 139
0.09673 0.37955 -0.96399 151 152 129
0.09678 0.37850 -0.96395 152 154 133
0.09770 0.37962 -0.96356 153 152 133
0.09866 0.37969 -0.96312 153 151 134
0.09763 0.37849 -0.96065 154 155 139
0.09854 0.37961 -0.96026 154 152 133
0.09859 0.37856 -0.96021 153 155 136
0.09865 0.37751 -0.96017 155 158 138
0.09652 0.37818 -0.95060 155 156 137
0.09553 0.37913 -0.95107 153 152 132
0.09558 0.37811 -0.95102 153 156 135
0.09563 0.37709 -0.95098 156 159 138
0.10804 0.37776 -0.89038 125 122 97
0.10727 0.37682 -0.89070 123 118 96
0.10808 0.37688 -0.89034 121 117 97
0.10966 0.37791 -0.89136 132 133 107
0.11133 0.37807 -0.89242 138 141 114
0.07349 0.37224 -0.76659 99 94 81
0.07414 0.37229 -0.76657 100 97 87
-0.04643 0.36519 -0.91644 159 150 145
-0.04572 0.36524 -0.91618 154 144 136
-0.04503 0.36528 -0.91528 144 136 127
-0.04443 0.36527 -0.91258 123 122 113
-0.04348 0.36514 -0.90207 93 94 86
-0.04291 0.36514 -0.89966 82 80 74
-0.04226 0.36518 -0.89890 76 72 64
-0.04155 0.36449 -0.89856 75 70 64
-0.03694 0.36573 -0.90556 67 62 63
-0.03760 0.36492 -0.90584 61 58 64
-0.03621 0.36579 -0.90579 82 75 71
-0.03544 0.36586 -0.90655 96 87 80
-0.03470 0.36593 -0.90677 102 92 88
0.06345 0.37469 -0.95820 121 113 95
0.06258 0.37362 -0.95857 116 110 95
0.06350 0.37369 -0.95816 119 113 98
0.09676 0.37743 -0.96374 154 157 135
0.09579 0.37736 -0.96417 153 157 135
0.11035 0.37710 -0.89240 124 121 102
0.10958 0.37615 -0.89273 121 116 101
0.11207 0.37726 -0.89352 133 132 112
0.09532 0.37457 -0.82407 137 135 125
0.09716 0.37474 -0.82542 149 147 134
0.07251 0.37162 -0.76619 119 113 101
0.07252 0.37161 -0.76542 96 93 79
0.07340 0.37168 -0.76566 99 98 84
0.07266 0.37159 -0.76403 125 123 108
0.06678 0.37086 -0.75018 180 172 153
-0.04638 0.36443 -0.91676 159 150 142
-0.04705 0.36360 -0.91705 163 154 142
-0.04634 0.36365 -0.91673 160 151 139
-0.04567 0.36448 -0.91658 154 146 136
-0.04498 0.36452 -0.91573 144 136 126
-0.04432 0.36454 -0.91415 126 123 112
-0.04391 0.36445 -0.90720 106 106 97
-0.04343 0.36441 -0.90246 94 93 88
-0.04279 0.36444 -0.90133 83 82 77
-0.04222 0.36444 -0.89882 76 72 67
-0.04151 0.36375 -0.89848 75 69 65
-0.03542 0.36510 -0.90628 92 87 79
0.01439 0.36877 -0.89433 61 76 89
0.01515 0.36803 -0.89397 50 62 81
0.09550 0.37627 -0.96333 156 159 137
0.09448 0.37725 -0.96381 156 158 139
0.09453 0.37620 -0.96376 157 159 138
0.11130 0.37630 -0.89385 121 117 103
0.11052 0.37535 -0.89418 122 117 102
0.11134 0.37541 -0.89381 121 117 102
0.09542 0.37387 -0.82413 133 135 115
0.09481 0.37312 -0.82439 131 132 116
0.09737 0.37405 -0.82562 148 150 129
0.07150 0.37099 -0.76495 115 112 100
0.07191 0.37102 -0.76465 93 94 81
0.07244 0.37106 -0.76449 99 99 86
0.07178 0.37098 -0.76297 125 125 107
-0.04567 0.36368 -0.91535 154 146 136
-0.04499 0.36372 -0.91428 145 135 127
-0.04436 0.36374 -0.91227 129 120 112
-0.04391 0.36368 -0.90627 109 105 96
-0.04342 0.36366 -0.90185 94 93 86
-0.04278 0.36369 -0.90074 84 82 75
-0.04221 0.36370 -0.89838 78 72 66
-0.04150 0.36301 -0.89804 75 69 66
-0.03687 0.36421 -0.90540 60 59 60
-0.03753 0.36341 -0.90568 61 58 60
-0.03615 0.36427 -0.90556 73 71 69
-0.03545 0.36432 -0.90522 90 86 79
-0.03411 0.36440 -0.90402 109 94 87
0.06211 0.37251 -0.95402 119 114 97
0.06120 0.37245 -0.95443 115 111 94
0.06125 0.37146 -0.95438 120 112 96
0.09383 0.37506 -0.96198 160 161 140
0.09282 0.37604 -0.96246 156 158 137
0.09287 0.37500 -0.96241 159 158 137
0.09292 0.37395 -0.96236 158 157 136
0.09482 0.37513 -0.96160 162 165 145
0.09583 0.37415 -0.96112 164 170 149
0.09622 0.37324 -0.82515 134 135 116
0.09561 0.37249 -0.82541 132 132 116
0.17421 0.38059 -0.91848 170 173 156
0.07133 0.37047 -0.76626 146 143 124
0.07087 0.36991 -0.76645 145 145 125
0.07125 0.37045 -0.76538 140 134 117
0.07044 0.37037 -0.76365 115 110 96
0.07091 0.37040 -0.76344 93 93 81
0.07139 0.37043 -0.76322 102 99 90
0.07189 0.36995 -0.76298 130 126 114
-0.04635 0.36286 -0.91545 159 151 144
-0.04705 0.36281 -0.91576 162 155 145
-0.04702 0.36204 -0.91573 161 154 151
-0.04563 0.36291 -0.91540 154 145 138
-0.04497 0.36294 -0.91399 146 134 125
-0.04440 0.36294 -0.91029 131 119 111
-0.04389 0.36293 -0.90582 112 106 96
-0.04339 0.36291 -0.90158 97 94 84
-0.04278 0.36294 -0.90002 87 81 73
-0.04218 0.36296 -0.89824 79 71 66
-0.04147 0.36228 -0.89791 73 71 67
-0.03691 0.36344 -0.90427 63 60 59
-0.03757 0.36263 -0.90455 62 59 61
-0.03614 0.36350 -0.90504 75 69 67
-0.03545 0.36355 -0.90476 91 83 78
-0.03406 0.36365 -0.90414 107 94 87
0.06129 0.37143 -0.95147 123 116 99
0.06224 0.37050 -0.95102 128 123 97
0.09351 0.37398 -0.96108 159 161 141
0.09261 0.37286 -0.96146 156 158 136
0.09356 0.37293 -0.96103 157 160 140
0.09452 0.37300 -0.96060 160 163 144
0.09450 0.37405 -0.96071 163 166 147
0.09551 0.37307 -0.96024 162 165 146
0.07047 0.36987 -0.76520 145 143 123
0.07002 0.36931 -0.76539 146 144 126
0.07040 0.36985 -0.76434 140 133 115
0.06980 0.36979 -0.76285 115 107 95
0.07030 0.36930 -0.76262 94 86 80
0.07034 0.36983 -0.76272 94 89 83
0.07073 0.36985 -0.76240 105 99 94
-0.04636 0.36207 -0.91395 159 150 149
-0.04703 0.36125 -0.91423 163 154 153
-0.04565 0.36212 -0.91385 153 144 141
-0.04498 0.36216 -0.91273 147 135 127
-0.04441 0.36217 -0.90926 133 120 111
-0.04394 0.36215 -0.90401 114 106 95
-0.04342 0.36216 -0.90019 99 94 82
-0.04282 0.36218 -0.89843 86 81 70
-0.04220 0.36222 -0.89714 77 72 65
-0.04149 0.36153 -0.89680 73 73 70
-0.03684 0.36269 -0.90468 64 60 61
-0.03750 0.36188 -0.90496 63 61 63
-0.03610 0.36275 -0.90506 73 69 69
-0.03542 0.36279 -0.90466 89 83 80
-0.03411 0.36288 -0.90298 104 94 91
0.06952 0.36926 -0.76402 147 142 126
0.06907 0.36870 -0.76421 146 143 128
0.06974 0.36927 -0.76350 137 129 116
-0.04500 0.36138 -0.91116 145 136 128
-0.04443 0.36140 -0.90781 130 119 109
-0.04393 0.36140 -0.90327 113 105 92
-0.04337 0.36142 -0.90050 99 93 80
-0.04275 0.36146 -0.89891 86 82 71
-0.04214 0.36149 -0.89754 76 75 69
-0.04143 0.36081 -0.89721 74 73 72
-0.03684 0.36193 -0.90419 63 60 66
-0.03749 0.36113 -0.90447 64 61 66
-0.03680 0.36117 -0.90416 63 61 69
-0.03606 0.36199 -0.90507 71 69 75
-0.03538 0.36204 -0.90459 87 82 85
-0.03461 0.36210 -0.90522 98 90 88
-0.03398 0.36214 -0.90410 102 94 91
0.06883 0.36868 -0.76315 146 142 130
0.06838 0.36813 -0.76334 143 143 127
0.06934 0.36871 -0.76297 134 128 119
-0.04777 0.36042 -0.91189 165 156 152
-0.04851 0.36113 -0.91223 168 160 152
-0.04847 0.36037 -0.91220 168 160 155
-0.04843 0.35961 -0.91216 166 160 153
-0.04781 0.36118 -0.91192 166 157 153
-0.04707 0.36047 -0.91162 162 154 147
-0.04640 0.36051 -0.91073 156 150 141
-0.04571 0.36056 -0.91016 151 145 138
-0.04443 0.36064 -0.90684 128 121 109
-0.04331 0.36069 -0.90087 99 93 83
-0.04266 0.36073 -0.89994 88 83 77
-0.03605 0.36123 -0.90471 71 67 76
-0.03532 0.36128 -0.90488 86 80 84
-0.03451 0.36135 -0.90610 96 89 85
-0.03385 0.36139 -0.90524 100 93 86
-0.03305 0.36145 -0.90623 110 100 97
0.06882 0.36816 -0.76308 144 142 131
0.06837 0.36761 -0.76327 143 142 127
-0.04778 0.35965 -0.91043 163 156 146
-0.04707 0.35970 -0.91041 159 152 137
-0.04634 0.35899 -0.91006 153 146 133
-0.04638 0.35975 -0.91019 154 147 134
-0.04569 0.35980 -0.90966 150 143 137
-0.04499 0.35985 -0.90937 141 136 128
-0.04383 0.35992 -0.90382 113 107 97
-0.04323 0.35996 -0.90177 100 93 90
-0.04259 0.36000 -0.90065 92 84 83
-0.04199 0.36004 -0.89881 84 76 74
-0.04136 0.36008 -0.89779 77 71 69
-0.04075 0.36012 -0.89649 71 67 65
-0.04011 0.36090 -0.89622 70 66 69
-0.04008 0.36017 -0.89619 68 65 65
-0.04004 0.35944 -0.89616 67 65 62
-0.03686 0.36041 -0.90266 65 61 65
-0.03755 0.36036 -0.90297 65 62 61
-0.03751 0.35961 -0.90293 65 60 54
-0.03603 0.36047 -0.90440 69 65 70
-0.03530 0.36053 -0.90463 84 79 80
-0.03451 0.36058 -0.90557 94 88 83
-0.03382 0.36063 -0.90508 99 91 83
-0.03301 0.36069 -0.90623 109 98 92
-0.04846 0.35884 -0.90968 164 159 149
-0.04919 0.35955 -0.91002 168 163 151
-0.04916 0.35879 -0.90999 167 162 147
-0.04912 0.35804 -0.90996 165 159 148
-0.04773 0.35814 -0.90933 160 152 144
-0.04709 0.35894 -0.90873 158 151 136
-0.04570 0.35904 -0.90836 150 142 133
-0.04501 0.35909 -0.90803 143 137 128
-0.04435 0.35913 -0.90689 133 126 116
-0.04375 0.35918 -0.90459 120 110 102
-0.04315 0.35922 -0.90260 106 96 92
-0.04252 0.35926 -0.90133 95 88 84
-0.04190 0.35931 -0.89990 87 80 76
-0.04124 0.35935 -0.89930 81 73 70
-0.04063 0.35940 -0.89779 74 67 66
-0.03992 0.35871 -0.89745 69 65 62
-0.03685 0.35966 -0.90229 64 58 57
-0.03750 0.35886 -0.90257 65 58 57
-0.03681 0.35891 -0.90226 62 57 56
-0.03602 0.35972 -0.90397 67 64 63
-0.03527 0.35977 -0.90446 81 78 76
-0.03452 0.35982 -0.90492 92 87 84
-0.03384 0.35987 -0.90439 98 91 86
0.12374 0.37088 -0.89597 135 132 116
0.12453 0.37185 -0.89564 138 134 121
0.12458 0.37094 -0.89560 136 135 119
0.12462 0.37002 -0.89555 133 135 115
-0.04704 0.35819 -0.90909 157 150 140
-0.04770 0.35738 -0.90937 159 152 145
-0.04700 0.35743 -0.90906 156 151 144
-0.04635 0.35823 -0.90877 152 145 136
-0.04566 0.35828 -0.90844 149 142 130
-0.04496 0.35833 -0.90827 144 137 126
-0.04430 0.35838 -0.90721 136 129 120
-0.04362 0.35843 -0.90671 123 114 106
-0.04298 0.35848 -0.90536 109 101 92
-0.04234 0.35852 -0.90412 96 91 81
-0.04170 0.35857 -0.90296 86 82 73
-0.04105 0.35862 -0.90203 79 75 67
-0.04033 0.35792 -0.90169 74 70 65
-0.04046 0.35867 -0.90005 75 69 65
-0.03975 0.35797 -0.89971 70 65 65
-0.03597 0.35896 -0.90414 64 61 61
-0.03662 0.35816 -0.90442 61 57 59
-0.03520 0.35901 -0.90484 78 74 74
-0.03447 0.35906 -0.90496 92 86 83
-0.03375 0.35911 -0.90495 97 91 84
-0.03290 0.35917 -0.90652 106 98 89
-0.03210 0.35922 -0.90742 118 107 96
-0.03136 0.35850 -0.90707 121 113 100
-0.04631 0.35748 -0.90865 153 147 140
-0.04697 0.35668 -0.90892 157 153 144
-0.04562 0.35753 -0.90846 150 143 132
-0.04492 0.35758 -0.90837 146 138 126
-0.04423 0.35762 -0.90782 138 132 120
-0.04355 0.35767 -0.90741 123 119 108
-0.04287 0.35772 -0.90674 108 103 92
-0.04221 0.35777 -0.90582 96 92 78
-0.04157 0.35782 -0.90465 85 81 69
-0.04091 0.35787 -0.90386 79 74 65
-0.03587 0.35821 -0.90490 64 60 63
-0.03653 0.35740 -0.90518 60 58 59
-0.03514 0.35825 -0.90517 77 71 72
-0.03446 0.35830 -0.90464 91 84 79
-0.03370 0.35835 -0.90508 96 92 81
-0.03289 0.35840 -0.90612 103 98 87
-0.03211 0.35845 -0.90678 115 107 96
-0.04557 0.35677 -0.90860 152 145 135
-0.04488 0.35682 -0.90838 149 140 130
-0.04420 0.35687 -0.90768 141 135 122
-0.04349 0.35692 -0.90775 126 122 110
-0.04278 0.35696 -0.90796 109 104 95
-0.04208 0.35701 -0.90766 98 92 81
-0.04142 0.35706 -0.90666 87 80 73
-0.04074 0.35711 -0.90621 80 72 71
-0.04012 0.35717 -0.90466 74 69 70
-0.03943 0.35722 -0.90435 68 66 65
-0.03577 0.35745 -0.90577 63 61 62
-0.03643 0.35664 -0.90605 60 59 62
-0.03508 0.35750 -0.90533 76 70 67
-0.03120 0.35773 -0.90837 121 114 102
-0.03053 0.35855 -0.90808 124 114 101
-0.03049 0.35778 -0.90805 125 116 106
-0.03045 0.35701 -0.90802 126 115 106
0.00479 0.36031 -0.88507 144 148 121
0.00414 0.35951 -0.88535 150 149 130
0.00552 0.35961 -0.88473 111 112 99
-0.04623 0.35597 -0.90882 156 151 141
-0.04689 0.35517 -0.90910 161 154 145
-0.04553 0.35602 -0.90861 153 147 138
-0.04418 0.35612 -0.90731 144 136 126
-0.04347 0.35616 -0.90748 128 123 113
-0.04269 0.35620 -0.90897 110 107 101
-0.04193 0.35624 -0.90980 97 94 90
-0.04126 0.35629 -0.90903 88 81 83
-0.04059 0.35634 -0.90824 79 72 79
-0.03996 0.35640 -0.90677 73 68 75
-0.03934 0.35646 -0.90513 69 65 66
-0.03869 0.35726 -0.90485 65 63 61
-0.03865 0.35651 -0.90482 65 62 58
-0.03861 0.35575 -0.90479 65 61 60
-0.03566 0.35668 -0.90674 61 61 60
-0.03632 0.35587 -0.90702 59 59 60
-0.03502 0.35673 -0.90567 73 69 61
-0.03432 0.35678 -0.90538 88 81 66
-0.03109 0.35695 -0.90912 124 112 102
-0.03035 0.35623 -0.90877 126 114 101
0.00163 0.35932 -0.88780 145 139 121
0.00237 0.35861 -0.88745 149 144 125
-0.04619 0.35521 -0.90897 159 152 145
-0.04684 0.35441 -0.90925 162 155 147
-0.04615 0.35446 -0.90894 160 154 148
-0.04550 0.35526 -0.90848 155 149 140
-0.04414 0.35536 -0.90735 146 137 128
-0.04340 0.35540 -0.90808 130 124 116
-0.04257 0.35542 -0.91047 111 108 104
-0.04181 0.35546 -0.91146 96 96 95
-0.03558 0.35591 -0.90730 60 59 59
-0.03624 0.35510 -0.90758 57 56 57
-0.03492 0.35597 -0.90642 70 67 61
-0.03418 0.35601 -0.90659 86 79 66
-0.03095 0.35617 -0.91026 123 111 96
-0.03020 0.35545 -0.90991 123 115 101
0.00136 0.35851 -0.88987 137 130 114
0.00216 0.35856 -0.89002 145 139 121
0.00289 0.35785 -0.88967 149 143 123
-0.04550 0.35452 -0.90747 156 150 145
-0.04615 0.35372 -0.90775 159 152 151
-0.04546 0.35377 -0.90744 157 150 151
-0.04479 0.35456 -0.90762 153 146 139
-0.04410 0.35461 -0.90741 146 138 129
-0.04339 0.35465 -0.90736 133 126 117
-0.04255 0.35466 -0.91007 114 108 102
-0.04179 0.35470 -0.91109 99 96 91
-0.03550 0.35514 -0.90785 58 57 57
-0.03616 0.35433 -0.90813 59 54 56
-0.03087 0.35539 -0.91076 120 112 97
-0.03011 0.35466 -0.91040 123 113 103
0.00265 0.35780 -0.89212 145 138 120
0.00340 0.35708 -0.89177 148 141 122
0.09919 0.36270 -0.96688 167 170 152
0.09816 0.36370 -0.96737 165 167 155
0.09821 0.36263 -0.96732 164 167 153
0.09914 0.36377 -0.96693 167 169 154
0.10011 0.36383 -0.96649 169 171 156
0.10017 0.36277 -0.96644 169 172 153
0.05921 0.36372 -0.74255 161 157 136
-0.04334 0.35389 -0.90766 135 125 116
-0.03546 0.35438 -0.90776 57 56 57
-0.03612 0.35357 -0.90805 59 53 57
0.00311 0.35702 -0.89402 144 136 121
0.00386 0.35629 -0.89367 146 140 123
0.09307 0.36090 -0.98588 152 157 136
0.09199 0.36194 -0.98638 151 152 133
0.09205 0.36083 -0.98633 149 152 131
0.09374 0.36097 -0.98458 156 160 143
0.09448 0.36103 -0.98346 161 162 150
0.09863 0.36157 -0.96810 167 173 157
0.09947 0.36164 -0.96734 168 174 160
0.10061 0.36171 -0.96727 172 176 161
0.10154 0.36285 -0.96688 168 171 155
0.10188 0.36178 -0.96747 173 176 161
0.10281 0.36292 -0.96707 169 171 157
0.10334 0.36186 -0.96807 173 176 161
0.10427 0.36301 -0.96768 171 173 159
0.10413 0.36193 -0.96720 174 177 164
0.10506 0.36307 -0.96681 171 173 159
0.10472 0.36199 -0.96591 174 174 164
0.10565 0.36313 -0.96552 170 173 159
0.10551 0.36205 -0.96506 174 174 163
0.10644 0.36319 -0.96466 168 171 158
0.10642 0.36212 -0.96446 173 174 161
0.10735 0.36326 -0.96406 167 169 156
0.10765 0.36219 -0.96456 171 172 159
0.10858 0.36333 -0.96416 167 170 152
0.12369 0.36449 -0.89344 109 110 93
0.12290 0.36352 -0.89377 106 104 89
0.12520 0.36457 -0.89411 121 122 106
0.12664 0.36465 -0.89465 129 128 113
0.12744 0.36562 -0.89432 130 130 115
0.12748 0.36471 -0.89428 130 128 115
0.05964 0.36327 -0.74364 156 151 130
0.05920 0.36370 -0.74384 152 153 133
0.05922 0.36324 -0.74382 155 150 132
0.05925 0.36279 -0.74380 157 148 133
0.05967 0.36281 -0.74361 157 149 130
0.05960 0.36328 -0.74294 163 156 134
0.06033 0.36333 -0.74309 173 168 149
0.06060 0.36335 -0.74274 181 174 159
0.06104 0.36292 -0.74253 185 173 164
-0.04541 0.35301 -0.90787 156 149 146
-0.04610 0.35296 -0.90818 159 151 147
-0.04606 0.35220 -0.90815 159 151 143
-0.04468 0.35304 -0.90852 153 144 142
-0.04329 0.35314 -0.90785 134 126 116
-0.03545 0.35362 -0.90732 57 53 55
-0.03541 0.35286 -0.90729 54 50 52
-0.03477 0.35367 -0.90683 63 58 60
-0.03014 0.35390 -0.90962 123 110 99
-0.02947 0.35472 -0.90933 125 115 101
-0.02943 0.35395 -0.90930 125 112 99
-0.02939 0.35317 -0.90926 123 111 96
0.09181 0.35966 -0.98857 147 150 129
0.09074 0.36070 -0.98908 147 147 129
0.09079 0.35958 -0.98903 147 148 129
0.09176 0.36077 -0.98862 146 148 129
0.09252 0.35972 -0.98733 150 153 132
0.09322 0.35979 -0.98607 154 157 138
0.09392 0.35986 -0.98484 158 161 145
0.09449 0.35993 -0.98329 163 164 153
0.09874 0.36050 -0.96818 174 181 165
0.09945 0.36057 -0.96713 177 182 167
0.10051 0.36064 -0.96687 179 185 169
0.10175 0.36071 -0.96702 180 186 168
0.10322 0.36078 -0.96764 182 185 168
0.10392 0.36085 -0.96659 182 185 170
0.10474 0.36092 -0.96579 181 183 171
0.10561 0.36098 -0.96510 181 183 170
0.10645 0.36105 -0.96437 181 184 169
0.10772 0.36112 -0.96453 179 183 169
0.12032 0.36192 -0.96321 164 169 145
0.12126 0.36307 -0.96281 163 163 145
0.12131 0.36199 -0.96277 164 167 144
0.12542 0.36363 -0.89601 104 103 90
0.12463 0.36265 -0.89634 109 104 90
0.12547 0.36271 -0.89596 106 101 87
0.12646 0.36369 -0.89592 112 110 98
0.12764 0.36376 -0.89606 123 122 110
0.08622 0.36301 -0.81147 127 128 112
0.08565 0.36231 -0.81171 126 128 111
0.06033 0.36287 -0.74305 173 167 151
0.06078 0.36244 -0.74284 184 172 159
0.06079 0.36290 -0.74290 182 173 160
0.06123 0.36247 -0.74269 185 173 160
-0.04535 0.35224 -0.90842 156 149 139
-0.04600 0.35144 -0.90870 159 150 142
-0.04531 0.35149 -0.90839 157 149 139
-0.04462 0.35153 -0.90808 153 145 137
-0.04460 0.35226 -0.90933 152 144 136
-0.04391 0.35231 -0.90895 146 139 131
-0.04323 0.35237 -0.90836 134 129 119
-0.03495 0.35297 -0.90391 59 54 56
0.01090 0.35571 -0.90339 72 83 90
0.01168 0.35495 -0.90303 53 66 79
0.01177 0.35576 -0.90364 51 65 84
0.09076 0.35847 -0.98875 146 153 132
0.09180 0.35854 -0.98833 147 155 135
0.09247 0.35861 -0.98701 151 156 135
0.09323 0.35868 -0.98592 154 159 138
0.09384 0.35875 -0.98446 160 163 146
0.09430 0.35882 -0.98267 164 166 152
0.09483 0.35889 -0.98104 166 169 156
0.09546 0.35896 -0.97970 168 171 161
0.09842 0.35943 -0.96729 184 188 172
0.09916 0.35950 -0.96631 187 190 174
0.10014 0.35956 -0.96589 189 193 177
0.10138 0.35964 -0.96603 190 196 177
0.10241 0.35864 -0.96554 197 203 183
0.10272 0.35971 -0.96638 192 197 177
0.10376 0.35871 -0.96589 195 202 184
0.10354 0.35977 -0.96558 191 196 177
0.10457 0.35877 -0.96509 195 202 183
0.10439 0.35984 -0.96487 190 195 177
0.10543 0.35884 -0.96438 194 202 181
0.10533 0.35991 -0.96434 189 195 176
0.10636 0.35891 -0.96385 193 200 182
0.10623 0.35998 -0.96373 189 195 178
0.10726 0.35898 -0.96325 193 198 184
0.10766 0.36005 -0.96425 188 192 179
0.12773 0.36280 -0.89776 107 103 91
0.12693 0.36182 -0.89810 109 101 81
0.12778 0.36188 -0.89772 106 101 85
0.12838 0.36286 -0.89709 114 113 101
0.08563 0.36233 -0.81059 127 129 113
0.08506 0.36164 -0.81083 125 127 113
-0.04317 0.35160 -0.90882 136 129 122
-0.04184 0.35172 -0.90698 104 99 92
-0.04117 0.35178 -0.90624 92 88 81
-0.04050 0.35184 -0.90561 79 77 73
-0.03985 0.35190 -0.90454 71 69 68
-0.03840 0.35198 -0.90496 63 61 58
-0.03771 0.35203 -0.90465 59 58 54
-0.03693 0.35205 -0.90559 56 56 51
-0.03620 0.35134 -0.90525 52 51 45
-0.03620 0.35208 -0.90588 53 52 49
-0.03546 0.35137 -0.90554 50 50 48
-0.03489 0.35221 -0.90407 56 51 54
0.01147 0.35488 -0.90562 74 82 84
0.01225 0.35411 -0.90525 55 66 77
0.09161 0.35743 -0.98767 149 160 144
0.09268 0.35639 -0.98716 157 163 149
0.09225 0.35750 -0.98628 153 162 143
0.09333 0.35647 -0.98577 161 166 151
0.09297 0.35758 -0.98508 156 164 144
0.09365 0.35765 -0.98382 160 166 151
0.09407 0.35772 -0.98191 165 170 156
0.09459 0.35780 -0.98029 168 174 159
0.09782 0.35829 -0.96843 185 188 174
0.09819 0.35836 -0.96659 187 190 180
0.09922 0.35736 -0.96611 189 195 183
0.09875 0.35843 -0.96523 190 193 183
0.09978 0.35744 -0.96474 193 198 185
0.09971 0.35850 -0.96475 193 197 183
0.10074 0.35750 -0.96427 194 201 185
0.10091 0.35857 -0.96481 196 201 182
0.10193 0.35757 -0.96432 195 203 186
0.12880 0.36194 -0.89761 106 105 93
0.12800 0.36096 -0.89795 106 102 86
0.08548 0.36167 -0.81031 126 129 114
0.08492 0.36098 -0.81056 125 126 117
-0.04378 0.35077 -0.91002 148 139 135
-0.04308 0.35081 -0.90994 137 129 123
-0.03984 0.35116 -0.90404 72 71 71
-0.03912 0.35120 -0.90421 67 66 67
-0.03840 0.35124 -0.90443 64 61 62
-0.03770 0.35128 -0.90427 59 56 54
-0.03697 0.35057 -0.90393 54 52 48
-0.03692 0.35130 -0.90515 55 53 48
-0.03619 0.35059 -0.90480 52 52 47
-0.03491 0.35147 -0.90337 53 50 51
-0.03556 0.35066 -0.90365 51 52 47
-0.03437 0.35156 -0.90112 68 62 59
-0.03379 0.35164 -0.89949 86 80 70
-0.03303 0.35167 -0.90004 94 88 76
-0.03231 0.35171 -0.90017 103 94 81
-0.03055 0.35170 -0.90375 120 110 93
-0.02989 0.35251 -0.90347 121 112 95
-0.02985 0.35175 -0.90344 122 113 96
-0.02982 0.35099 -0.90341 121 112 95
0.01199 0.35403 -0.90762 77 84 82
0.01278 0.35327 -0.90725 56 66 84
0.09286 0.35656 -0.98169 163 169 155
0.09191 0.35539 -0.98210 161 165 147
0.09733 0.35730 -0.96449 186 193 182
0.12854 0.36101 -0.89710 102 101 89
0.12774 0.36003 -0.89744 106 104 91
0.12859 0.36009 -0.89706 102 101 89
0.08584 0.36102 -0.81073 126 128 116
0.08527 0.36032 -0.81097 124 127 115
-0.04376 0.35002 -0.90965 147 140 136
-0.04305 0.35006 -0.90960 137 132 125
-0.04227 0.35006 -0.91090 121 117 107
-0.04159 0.35012 -0.91025 104 101 93
-0.04090 0.35017 -0.90979 93 89 87
-0.04028 0.35026 -0.90803 82 78 79
-0.03969 0.35036 -0.90591 72 68 70
-0.03902 0.35042 -0.90528 66 63 64
-0.03767 0.35053 -0.90414 56 54 49
-0.03694 0.34982 -0.90379 53 52 50
-0.03490 0.35072 -0.90301 53 53 51
-0.03555 0.34992 -0.90329 51 51 45
-0.03437 0.35083 -0.90057 68 64 63
-0.03381 0.35091 -0.89871 85 80 73
-0.03303 0.35093 -0.89955 93 87 76
-0.03232 0.35097 -0.89957 100 92 81
-0.03153 0.35099 -0.90045 111 100 89
-0.03063 0.35098 -0.90240 120 109 95
-0.02990 0.35027 -0.90206 120 110 99
0.01236 0.35319 -0.90899 78 86 87
0.01316 0.35242 -0.90862 58 66 88
0.09190 0.35548 -0.97917 163 168 152
0.09196 0.35439 -0.97912 160 168 151
0.09770 0.35632 -0.96253 193 198 183
0.09797 0.35640 -0.96053 195 200 186
0.09893 0.35646 -0.96009 195 201 188
0.16654 0.36198 -0.90485 137 140 123
0.16740 0.36303 -0.90448 135 137 124
0.16745 0.36204 -0.90444 134 138 120
0.16750 0.36105 -0.90440 133 137 120
-0.04437 0.34917 -0.91113 153 146 139
-0.04507 0.34912 -0.91144 157 148 139
-0.04369 0.34923 -0.91047 146 141 133
-0.04298 0.34927 -0.91027 137 133 122
-0.04222 0.34929 -0.91111 121 119 107
-0.04155 0.34936 -0.91017 106 103 93
-0.04090 0.34943 -0.90897 94 91 85
-0.04025 0.34950 -0.90791 83 80 77
-0.03963 0.34959 -0.90623 73 69 68
-0.03895 0.34965 -0.90567 65 61 60
-0.03822 0.34894 -0.90532 60 54 54
-0.03828 0.34971 -0.90508 59 55 52
-0.03755 0.34900 -0.90474 57 53 53
-0.03483 0.34996 -0.90333 53 54 48
-0.03548 0.34915 -0.90361 52 48 40
-0.03434 0.35008 -0.90049 67 65 64
-0.03380 0.35018 -0.89833 84 79 78
-0.03304 0.35020 -0.89904 92 85 80
-0.03151 0.35024 -0.90024 109 99 91
-0.03060 0.35022 -0.90228 118 108 99
-0.02987 0.34952 -0.90193 119 110 101
0.01262 0.35235 -0.90989 81 87 88
0.01342 0.35157 -0.90951 62 69 89
0.03859 0.35207 -0.96081 84 84 91
0.03943 0.35213 -0.96018 97 96 88
0.04028 0.35318 -0.95982 102 97 83
0.04033 0.35220 -0.95978 102 98 85
0.04038 0.35121 -0.95974 103 99 83
0.08722 0.35413 -0.97903 148 151 137
0.08628 0.35298 -0.97943 145 146 137
0.08816 0.35420 -0.97846 152 157 143
0.08994 0.35435 -0.97704 157 165 147
0.09731 0.35527 -0.96148 197 202 187
0.09740 0.35536 -0.95909 198 205 190
0.09841 0.35438 -0.95862 200 210 195
0.09788 0.35544 -0.95761 197 205 190
0.09878 0.35655 -0.95723 193 202 187
0.09861 0.35551 -0.95668 195 205 189
0.09951 0.35662 -0.95630 194 202 186
0.09956 0.35557 -0.95625 195 203 188
0.11556 0.35640 -0.95781 178 187 171
0.11459 0.35633 -0.95825 182 192 174
0.11652 0.35647 -0.95733 175 183 170
0.11725 0.35654 -0.95641 173 181 168
-0.04503 0.34835 -0.91150 155 151 141
-0.04577 0.34907 -0.91185 160 150 141
-0.04573 0.34830 -0.91181 159 152 145
-0.04569 0.34754 -0.91178 159 153 145
-0.04499 0.34759 -0.91146 156 151 141
-0.04366 0.34848 -0.91004 147 141 131
-0.04299 0.34854 -0.90932 137 133 121
-0.04226 0.34857 -0.90960 122 119 106
-0.04153 0.34860 -0.90990 108 104 94
-0.04086 0.34867 -0.90898 95 91 84
-0.04024 0.34876 -0.90737 83 80 75
-0.03959 0.34884 -0.90622 72 71 66
-0.03467 0.34915 -0.90490 53 51 44
-0.03533 0.34834 -0.90518 53 47 40
-0.03416 0.34927 -0.90226 66 62 60
-0.03362 0.34938 -0.90004 83 76 74
-0.03289 0.34941 -0.90030 92 83 77
-0.03220 0.34946 -0.90008 97 88 81
-0.03141 0.34947 -0.90093 107 98 93
-0.03057 0.34947 -0.90220 116 108 101
-0.02984 0.34876 -0.90186 117 107 98
-0.00080 0.35115 -0.90002 132 127 105
-0.00148 0.35032 -0.90031 129 122 106
0.01310 0.35148 -0.91169 86 90 90
0.01390 0.35070 -0.91131 62 73 86
0.03857 0.35109 -0.96052 82 84 87
0.03948 0.35115 -0.96016 97 97 86
0.04043 0.35023 -0.95971 104 100 77
0.08629 0.35308 -0.97650 148 151 138
0.08731 0.35315 -0.97614 153 157 144
0.08837 0.35322 -0.97588 156 162 148
0.08934 0.35329 -0.97538 159 167 152
0.09035 0.35336 -0.97499 162 170 155
0.09709 0.35423 -0.96083 199 206 190
0.09811 0.35325 -0.96035 202 210 198
0.09708 0.35432 -0.95822 202 209 194
0.09809 0.35335 -0.95775 203 212 199
0.09808 0.35448 -0.95535 198 208 195
0.09813 0.35344 -0.95531 201 210 197
0.09908 0.35351 -0.95488 200 208 195
0.09857 0.35456 -0.95393 197 205 193
0.09947 0.35566 -0.95355 193 201 185
0.09957 0.35359 -0.95346 198 206 194
0.11395 0.35528 -0.95682 181 192 176
0.11293 0.35627 -0.95730 186 195 177
0.11298 0.35522 -0.95726 185 196 182
0.11477 0.35535 -0.95608 179 186 168
0.17036 0.35997 -0.91120 144 145 128
0.17181 0.36004 -0.91146 135 138 121
0.17279 0.35909 -0.91100 134 135 118
-0.04432 0.34767 -0.91038 153 147 137
-0.04364 0.34773 -0.90973 148 142 129
-0.04296 0.34779 -0.90901 139 135 119
-0.04226 0.34784 -0.90878 125 121 105
-0.04158 0.34790 -0.90809 110 105 92
-0.04090 0.34796 -0.90746 96 91 82
-0.04024 0.34803 -0.90656 82 79 72
-0.03883 0.34811 -0.90630 64 62 55
-0.03810 0.34741 -0.90595 62 58 50
-0.03464 0.34839 -0.90481 54 50 41
-0.03529 0.34759 -0.90509 52 49 44
-0.03408 0.34850 -0.90272 64 61 54
-0.03351 0.34860 -0.90089 81 75 68
-0.03279 0.34864 -0.90105 90 83 74
-0.03206 0.34867 -0.90115 96 88 82
-0.03124 0.34867 -0.90231 108 98 93
-0.03043 0.34867 -0.90331 116 105 98
-0.02969 0.34796 -0.90296 116 105 94
-0.00080 0.35037 -0.89979 132 126 109
-0.00148 0.34954 -0.90008 128 120 103
0.01309 0.35065 -0.91145 87 94 89
0.01389 0.34988 -0.91107 63 72 79
0.03717 0.35009 -0.95889 60 69 77
0.03627 0.35003 -0.95930 64 72 88
0.03632 0.34905 -0.95925 62 71 86
0.03812 0.35015 -0.95869 81 85 86
0.03907 0.34923 -0.95824 97 96 90
0.03894 0.35022 -0.95802 98 98 87
0.03989 0.34930 -0.95758 103 99 78
0.08520 0.35206 -0.97358 150 153 140
0.08645 0.35211 -0.97382 155 158 144
0.08766 0.35217 -0.97393 160 164 151
0.08883 0.35223 -0.97395 164 169 155
0.08987 0.35123 -0.97346 168 174 161
0.08986 0.35230 -0.97363 166 173 160
0.09090 0.35129 -0.97314 171 177 169
0.17170 0.35896 -0.91284 142 145 129
0.17268 0.35802 -0.91237 135 137 120
0.17225 0.35903 -0.91192 135 138 120
0.17323 0.35808 -0.91146 134 135 117
-0.04359 0.34696 -0.90993 148 142 127
-0.04291 0.34702 -0.90923 141 135 119
-0.04223 0.34708 -0.90865 127 123 107
-0.04165 0.34722 -0.90606 109 107 92
-0.04102 0.34731 -0.90471 95 91 79
-0.04034 0.34736 -0.90417 82 78 66
-0.03882 0.34737 -0.90585 66 62 48
-0.03809 0.34666 -0.90551 63 62 52
-0.03651 0.34739 -0.90822 56 55 56
-0.03725 0.34811 -0.90857 58 55 55
-0.03721 0.34734 -0.90854 58 57 55
-0.03717 0.34658 -0.90850 60 60 57
-0.03655 0.34816 -0.90826 55 53 53
-0.03647 0.34663 -0.90819 57 57 57
-0.03584 0.34746 -0.90744 54 51 51
-0.03510 0.34675 -0.90709 52 49 47
-0.03460 0.34763 -0.90481 52 50 42
-0.03404 0.34775 -0.90272 63 60 54
-0.03342 0.34783 -0.90150 80 75 70
-0.03268 0.34786 -0.90180 88 82 75
-0.03195 0.34789 -0.90201 95 87 80
-0.03113 0.34788 -0.90311 107 96 85
-0.03027 0.34787 -0.90453 114 103 89
-0.02954 0.34715 -0.90418 114 104 95
-0.00106 0.34963 -0.89825 130 124 107
-0.00173 0.34880 -0.89854 127 121 101
0.03752 0.34923 -0.95629 80 85 89
0.08730 0.35112 -0.97287 160 165 152
0.08868 0.35117 -0.97341 166 171 156
0.17154 0.35782 -0.91579 167 170 151
0.17065 0.35673 -0.91616 168 172 152
0.17190 0.35788 -0.91462 158 159 140
0.17223 0.35795 -0.91341 142 144 125
0.17321 0.35700 -0.91295 136 138 118
-0.04352 0.34617 -0.91054 147 140 133
-0.04418 0.34536 -0.91082 150 144 136
-0.04284 0.34624 -0.90978 140 133 125
-0.04217 0.34631 -0.90902 127 121 114
-0.04160 0.34645 -0.90634 108 106 99
-0.04099 0.34656 -0.90455 94 91 84
-0.04027 0.34659 -0.90470 83 77 71
-0.03944 0.34654 -0.90677 71 67 57
-0.03872 0.34657 -0.90685 66 63 49
-0.03798 0.34586 -0.90650 65 63 56
-0.03578 0.34668 -0.90775 53 53 53
-0.03574 0.34592 -0.90772 54 51 54
-0.03504 0.34597 -0.90740 52 49 52
-0.03457 0.34688 -0.90456 53 49 47
-0.03454 0.34613 -0.90452 52 48 52
-0.03399 0.34699 -0.90282 61 57 57
-0.03331 0.34704 -0.90243 78 72 71
-0.03260 0.34708 -0.90230 88 80 74
-0.03183 0.34710 -0.90285 93 83 74
-0.03104 0.34710 -0.90370 104 93 78
-0.03017 0.34708 -0.90520 112 102 87
-0.02943 0.34636 -0.90485 113 103 97
0.01059 0.34919 -0.90392 129 129 108
0.00989 0.34833 -0.90422 140 137 115
0.08737 0.35005 -0.97286 158 165 152
0.08895 0.35008 -0.97389 164 170 154
0.09041 0.35013 -0.97460 168 173 159
0.09145 0.34912 -0.97411 171 173 162
0.12296 0.35604 -0.87700 119 120 105
0.12371 0.35696 -0.87668 122 124 106
0.12375 0.35609 -0.87664 122 123 106
0.17068 0.35680 -0.91455 166 169 152
0.16980 0.35572 -0.91492 167 171 153
-0.04349 0.34541 -0.91035 146 139 137
-0.04415 0.34460 -0.91063 149 145 136
-0.04281 0.34548 -0.90958 139 132 128
-0.04215 0.34556 -0.90864 125 119 114
-0.04160 0.34573 -0.90546 109 105 100
-0.04094 0.34580 -0.90465 94 93 85
-0.04018 0.34580 -0.90559 82 81 73
-0.03864 0.34579 -0.90745 66 65 54
-0.03791 0.34508 -0.90710 66 62 58
-0.03328 0.34629 -0.90230 74 69 66
-0.03258 0.34633 -0.90209 86 78 70
-0.03179 0.34634 -0.90292 92 82 71
-0.03098 0.34633 -0.90388 103 90 79
-0.03014 0.34632 -0.90508 112 99 89
-0.02940 0.34560 -0.90473 115 103 93
0.01077 0.34836 -0.90448 130 130 109
0.01007 0.34750 -0.90478 139 136 115
0.08935 0.34899 -0.97469 161 168 151
0.09092 0.34902 -0.97567 166 171 156
0.12255 0.35511 -0.87782 104 105 93
0.12179 0.35418 -0.87814 102 101 87
0.12264 0.35518 -0.87643 114 114 102
0.12284 0.35524 -0.87522 119 120 105
0.12359 0.35616 -0.87490 121 124 106
0.12363 0.35530 -0.87487 119 122 105
0.12368 0.35443 -0.87483 118 121 101
0.05902 0.35827 -0.74181 164 159 138
0.05941 0.35875 -0.74164 174 170 149
0.05944 0.35830 -0.74162 175 169 150
0.05983 0.35878 -0.74145 178 171 156
0.05985 0.35832 -0.74143 178 171 153
0.05987 0.35787 -0.74141 176 170 152
-0.04342 0.34461 -0.91115 145 140 135
-0.04272 0.34467 -0.91076 138 132 125
-0.04207 0.34477 -0.90930 125 119 107
-0.04162 0.34503 -0.90441 111 106 92
-0.04094 0.34508 -0.90401 97 95 82
-0.04017 0.34506 -0.90514 84 84 74
-0.03944 0.34508 -0.90546 73 72 65
-0.03860 0.34502 -0.90751 68 65 59
-0.03786 0.34431 -0.90716 65 61 61
-0.03320 0.34551 -0.90281 72 67 64
-0.03249 0.34555 -0.90264 85 79 70
-0.03171 0.34556 -0.90330 91 83 72
-0.03095 0.34558 -0.90370 103 91 81
-0.03013 0.34556 -0.90481 113 99 89
-0.02939 0.34485 -0.90446 116 103 89
0.01083 0.34755 -0.90454 131 130 112
0.01013 0.34669 -0.90483 137 133 115
0.01202 0.34753 -0.90608 96 98 92
0.08953 0.34790 -0.97494 159 165 154
0.09122 0.34792 -0.97623 165 171 157
0.09297 0.34794 -0.97762 170 175 160
0.12178 0.35426 -0.87660 102 101 89
0.12103 0.35334 -0.87691 103 101 87
0.12183 0.35339 -0.87656 102 100 87
0.12196 0.35433 -0.87535 107 108 96
0.12203 0.35440 -0.87394 115 118 101
0.05923 0.35781 -0.74199 164 158 138
0.05965 0.35784 -0.74180 174 167 147
0.06008 0.35742 -0.74159 177 170 157
-0.04410 0.34383 -0.91085 149 143 136
-0.04484 0.34454 -0.91120 155 148 139
-0.04480 0.34378 -0.91117 154 146 137
-0.04477 0.34301 -0.91113 151 143 138
-0.04340 0.34387 -0.91069 143 138 131
-0.04267 0.34389 -0.91091 137 131 122
-0.04199 0.34396 -0.91029 128 122 108
-0.04144 0.34414 -0.90711 113 108 94
-0.03940 0.34433 -0.90544 74 73 66
-0.03861 0.34430 -0.90673 69 66 62
-0.03787 0.34359 -0.90638 64 63 64
-0.03384 0.34470 -0.90320 57 53 51
-0.03450 0.34390 -0.90348 51 49 48
-0.03166 0.34479 -0.90347 93 83 70
-0.03093 0.34482 -0.90349 103 91 79
-0.03013 0.34482 -0.90434 113 100 86
-0.02939 0.34410 -0.90400 116 103 90
0.01080 0.34675 -0.90417 131 128 114
0.01009 0.34589 -0.90447 136 131 110
0.01182 0.34676 -0.90503 98 99 94
0.08926 0.34685 -0.97410 159 163 155
0.09104 0.34686 -0.97561 166 170 159
0.09209 0.34585 -0.97512 175 178 166
0.09292 0.34686 -0.97732 173 177 160
0.12792 0.34881 -0.97131 170 174 162
0.12888 0.35000 -0.97090 165 170 160
0.12894 0.34888 -0.97085 166 172 159
0.12899 0.34777 -0.97080 166 173 159
0.12181 0.35347 -0.87502 102 104 90
0.12106 0.35255 -0.87534 103 101 85
0.05928 0.35736 -0.74200 165 159 143
0.05969 0.35739 -0.74181 174 167 152
0.06013 0.35696 -0.74160 176 171 157
-0.04409 0.34309 -0.91033 148 140 135
-0.04475 0.34228 -0.91061 150 142 140
-0.04405 0.34233 -0.91030 146 140 139
-0.04338 0.34313 -0.91014 144 136 130
-0.04266 0.34316 -0.91029 139 132 123
-0.04198 0.34323 -0.90951 130 125 114
-0.04069 0.34342 -0.90701 101 98 86
-0.03927 0.34349 -0.90691 76 75 68
-0.03854 0.34351 -0.90720 68 67 65
-0.03575 0.34371 -0.90591 55 53 56
-0.03645 0.34366 -0.90622 58 57 61
-0.03579 0.34447 -0.90594 55 52 56
-0.03509 0.34452 -0.90563 51 49 52
-0.03505 0.34376 -0.90560 52 50 51
-0.03502 0.34300 -0.90556 53 50 44
-0.03379 0.34394 -0.90334 56 53 51
-0.03445 0.34313 -0.90361 52 49 46
-0.03311 0.34399 -0.90287 73 66 64
-0.03241 0.34404 -0.90265 88 77 70
-0.00030 0.34622 -0.88943 135 127 105
0.00065 0.34622 -0.89034 129 121 96
0.00139 0.34551 -0.88999 125 120 97
0.00390 0.34613 -0.89471 127 120 104
0.00323 0.34531 -0.89499 123 117 98
0.00466 0.34541 -0.89435 135 128 110
0.00511 0.34608 -0.89665 135 128 111
0.00587 0.34535 -0.89629 135 129 106
0.12120 0.35263 -0.87404 102 103 85
0.12046 0.35172 -0.87435 104 101 83
0.12124 0.35177 -0.87400 102 102 83
0.05943 0.35687 -0.74276 154 148 133
0.05904 0.35638 -0.74293 150 145 126
0.05985 0.35690 -0.74257 165 159 148
0.06027 0.35693 -0.74239 174 167 155
0.06071 0.35650 -0.74218 175 168 154
-0.04339 0.34242 -0.90917 143 138 135
-0.04405 0.34161 -0.90944 146 141 138
-0.04266 0.34244 -0.90948 141 135 126
-0.04200 0.34252 -0.90844 133 128 113
-0.04127 0.34254 -0.90874 117 115 98
-0.04070 0.34272 -0.90607 102 102 85
-0.03930 0.34280 -0.90576 78 74 71
-0.03861 0.34285 -0.90536 70 66 67
-0.03787 0.34285 -0.90587 65 61 63
-0.03721 0.34366 -0.90559 61 60 63
-0.03713 0.34214 -0.90552 61 58 53
-0.03718 0.34291 -0.90538 62 60 59
-0.03645 0.34220 -0.90503 56 56 53
-0.03647 0.34294 -0.90540 57 57 55
-0.03578 0.34300 -0.90492 54 52 48
-0.03505 0.34229 -0.90457 54 48 39
-0.03379 0.34320 -0.90288 55 51 51
-0.03444 0.34240 -0.90316 52 48 39
-0.03313 0.34328 -0.90214 71 64 63
-0.03243 0.34332 -0.90193 87 78 72
-0.03173 0.34336 -0.90174 93 82 70
-0.03099 0.34338 -0.90196 100 89 74
-0.03027 0.34342 -0.90193 109 99 84
-0.02954 0.34271 -0.90158 113 104 87
0.00075 0.34544 -0.89057 129 121 98
0.00148 0.34473 -0.89022 125 121 97
0.00384 0.34538 -0.89418 127 120 104
0.00316 0.34455 -0.89446 122 118 96
0.10525 0.34441 -0.99180 186 191 178
0.10624 0.34562 -0.99138 185 188 178
0.10635 0.34334 -0.99128 190 197 185
0.06028 0.35640 -0.74365 154 149 132
0.05989 0.35591 -0.74382 147 147 126
0.06070 0.35643 -0.74346 165 160 145
0.06113 0.35646 -0.74328 173 167 152
0.06157 0.35603 -0.74307 176 166 151
-0.04340 0.34173 -0.90794 143 139 135
-0.04406 0.34092 -0.90822 149 141 136
-0.04267 0.34173 -0.90841 141 136 125
-0.04200 0.34181 -0.90756 135 129 112
-0.04129 0.34184 -0.90765 120 116 100
-0.04070 0.34199 -0.90544 104 102 89
-0.04002 0.34206 -0.90488 91 89 80
-0.03935 0.34212 -0.90424 79 74 71
-0.03866 0.34217 -0.90394 71 63 63
-0.03793 0.34219 -0.90424 65 59 56
-0.03720 0.34148 -0.90389 60 58 52
-0.03581 0.34229 -0.90401 54 51 46
-0.03646 0.34149 -0.90429 57 55 53
-0.03508 0.34158 -0.90367 51 48 40
-0.03311 0.34254 -0.90186 67 62 54
-0.03240 0.34257 -0.90180 84 78 65
-0.03174 0.34264 -0.90113 93 84 67
-0.03103 0.34267 -0.90107 99 88 72
-0.03035 0.34273 -0.90059 107 98 81
0.00393 0.34459 -0.89438 125 120 103
0.00325 0.34377 -0.89467 122 117 97
0.00495 0.34457 -0.89548 134 128 110
0.00567 0.34462 -0.89516 134 128 108
0.00570 0.34384 -0.89512 133 129 108
0.08298 0.34378 -0.96654 154 159 144
0.08459 0.34378 -0.96772 161 164 148
0.12446 0.34516 -0.97389 184 191 179
0.12349 0.34397 -0.97430 190 193 187
0.12451 0.34404 -0.97384 184 192 180
0.12554 0.34412 -0.97338 182 192 178
0.06103 0.35592 -0.74443 153 150 132
0.06063 0.35543 -0.74460 147 144 126
0.06158 0.35595 -0.74438 164 159 142
0.06200 0.35598 -0.74419 175 168 152
0.06245 0.35555 -0.74397 174 168 149
-0.04338 0.34098 -0.90769 146 139 131
-0.04403 0.34018 -0.90797 148 142 134
-0.04334 0.34023 -0.90766 144 140 129
-0.04265 0.34099 -0.90807 142 135 123
-0.04197 0.34106 -0.90741 135 128 115
-0.04061 0.34119 -0.90628 107 103 96
-0.04004 0.34136 -0.90396 92 91 86
-0.03937 0.34142 -0.90330 79 76 76
-0.03870 0.34149 -0.90277 71 67 66
-0.03799 0.34151 -0.90279 64 60 56
-0.03726 0.34081 -0.90245 59 58 48
-0.03382 0.34178 -0.90143 53 52 44
-0.03447 0.34098 -0.90171 49 49 42
-0.03318 0.34186 -0.90054 63 63 52
-0.03249 0.34190 -0.90033 80 77 60
-0.03178 0.34194 -0.90019 90 83 63
-0.03108 0.34198 -0.90005 97 86 69
-0.03042 0.34204 -0.89941 106 95 80
-0.02959 0.34201 -0.90060 112 105 87
-0.02894 0.34281 -0.90033 116 106 88
-0.02890 0.34205 -0.90029 115 108 90
-0.02886 0.34130 -0.90026 115 105 92
0.00393 0.34382 -0.89420 124 119 103
0.00326 0.34300 -0.89448 120 116 99
0.00493 0.34381 -0.89516 132 127 109
0.00568 0.34308 -0.89480 134 130 107
0.08274 0.34277 -0.96575 156 160 148
0.08398 0.34280 -0.96602 163 165 150
0.06207 0.35548 -0.74487 166 159 145
0.06269 0.35550 -0.74488 174 168 151
0.06314 0.35507 -0.74467 171 167 147
-0.04265 0.34028 -0.90733 140 136 123
-0.04330 0.33947 -0.90761 142 140 127
-0.04196 0.34034 -0.90685 135 130 117
-0.04129 0.34041 -0.90610 124 119 109
-0.04007 0.34068 -0.90265 93 92 85
-0.03939 0.34074 -0.90225 80 80 75
-0.03873 0.34080 -0.90167 71 69 62
-0.03807 0.34087 -0.90100 63 60 50
-0.03735 0.34018 -0.90065 59 57 45
-0.03382 0.34105 -0.90099 51 50 46
-0.03447 0.34025 -0.90126 48 46 35
-0.03318 0.34113 -0.90007 59 58 54
-0.03181 0.34123 -0.89944 88 81 71
-0.03109 0.34126 -0.89949 95 85 76
-0.03043 0.34133 -0.89885 105 94 85
-0.02966 0.34132 -0.89950 112 102 90
-0.02893 0.34061 -0.89915 116 104 91
0.00499 0.34302 -0.89524 131 127 108
0.00574 0.34229 -0.89488 134 128 109
0.08429 0.34172 -0.96662 165 167 151
0.06174 0.35498 -0.74512 154 147 132
0.06233 0.35501 -0.74510 166 159 143
0.06278 0.35457 -0.74489 171 166 148
0.06319 0.35502 -0.74539 172 167 149
0.06364 0.35459 -0.74517 169 164 146
-0.04265 0.33957 -0.90655 139 138 122
-0.04330 0.33877 -0.90682 144 139 130
-0.04196 0.33963 -0.90612 134 133 116
-0.04128 0.33969 -0.90552 124 121 104
-0.04067 0.33983 -0.90385 110 105 90
-0.04010 0.34001 -0.90152 96 93 80
-0.03945 0.34008 -0.90075 82 81 71
-0.03880 0.34017 -0.89989 70 69 58
-0.03815 0.34024 -0.89919 62 60 47
-0.03391 0.34040 -0.89929 49 46 38
-0.03456 0.33961 -0.89956 48 47 36
-0.03388 0.33966 -0.89926 48 47 36
-0.03321 0.34044 -0.89923 56 53 50
-0.03182 0.34052 -0.89881 86 81 74
