ply
format ascii 1.0
element face 0
property list uchar int vertex_indices
element vertex 1304
property float x
property float y
property float z
property uchar diffuse_red
property uchar diffuse_green
property uchar diffuse_blue
end_header
0.07426 0.41347 -0.78867 207 201 190
0.07430 0.41301 -0.78866 207 201 190
0.07434 0.41254 -0.78864 208 200 190
0.07513 0.41308 -0.78827 200 194 183
0.07552 0.41311 -0.78803 186 179 168
0.07570 0.41305 -0.78756 176 169 159
0.07605 0.41306 -0.78729 174 166 158
0.07652 0.41264 -0.78709 172 159 153
0.07510 0.41272 -0.78886 206 199 189
0.07470 0.41221 -0.78902 207 200 187
0.07545 0.41273 -0.78859 199 192 183
0.07560 0.41266 -0.78807 185 176 169
0.07576 0.41259 -0.78756 175 166 162
0.07623 0.41217 -0.78737 174 162 156
0.07606 0.41259 -0.78724 174 162 158
0.07653 0.41217 -0.78704 172 161 154
0.05533 0.40151 -0.74719 186 175 163
0.05504 0.40115 -0.74731 187 174 173
0.07545 0.41225 -0.78852 197 189 179
0.07572 0.41223 -0.78815 182 173 167
0.07610 0.41225 -0.78791 174 163 159
0.07657 0.41183 -0.78772 173 163 153
0.07585 0.41205 -0.78965 205 198 184
0.07545 0.41154 -0.78982 206 199 188
0.07566 0.41185 -0.78871 194 188 175
0.07587 0.41181 -0.78827 179 172 164
0.07650 0.41193 -0.78833 173 164 157
0.05634 0.40110 -0.74769 164 151 149
0.07640 0.41179 -0.79027 204 197 186
0.07601 0.41127 -0.79043 206 199 191
0.07619 0.41158 -0.78929 191 185 177
0.07672 0.41166 -0.78923 177 171 167
0.07721 0.41172 -0.78912 172 165 159
0.07768 0.41130 -0.78892 173 161 150
0.07739 0.41167 -0.78863 172 163 150
0.07779 0.41218 -0.78847 171 162 149
0.07782 0.41171 -0.78845 171 160 145
0.07786 0.41124 -0.78844 173 159 145
0.05676 0.40098 -0.74854 184 171 170
0.05785 0.40120 -0.74874 141 129 131
0.05820 0.40089 -0.74859 131 118 112
0.06054 0.40191 -0.75009 166 157 148
0.06057 0.40156 -0.75007 169 158 145
0.06090 0.40159 -0.74994 186 174 161
0.07666 0.41140 -0.79051 203 196 189
0.07626 0.41088 -0.79067 206 199 190
0.07673 0.41130 -0.78988 190 183 177
0.07700 0.41128 -0.78950 176 168 163
0.07747 0.41086 -0.78930 171 162 150
0.07778 0.41146 -0.78973 172 163 156
0.07825 0.41103 -0.78954 171 160 150
0.05644 0.40059 -0.74862 186 173 169
0.05609 0.40091 -0.74877 186 176 169
0.05612 0.40056 -0.74875 186 174 170
0.05615 0.40022 -0.74874 182 174 166
0.05655 0.40055 -0.74828 178 164 160
0.05728 0.40065 -0.74811 138 125 122
0.05762 0.40034 -0.74796 128 120 107
0.07701 0.41105 -0.79087 203 195 186
0.07661 0.41053 -0.79103 204 198 188
0.07735 0.41105 -0.79057 190 180 170
0.07781 0.41111 -0.79042 175 166 154
0.07829 0.41068 -0.79022 169 163 152
-0.00660 0.41698 -0.91162 164 151 139
-0.00730 0.41761 -0.91191 160 148 132
-0.00725 0.41692 -0.91188 161 148 136
-0.00719 0.41623 -0.91186 160 147 135
-0.00666 0.41767 -0.91165 163 151 136
-0.00602 0.41774 -0.91138 170 158 144
-0.00606 0.41688 -0.91051 172 158 144
-0.00547 0.41764 -0.91027 176 163 145
-0.00542 0.41695 -0.91024 176 163 148
-0.00536 0.41626 -0.91021 176 162 147
0.08602 0.41983 -0.83630 190 185 176
0.08547 0.41977 -0.83653 195 189 181
0.08658 0.41988 -0.83607 186 181 169
0.07850 0.41088 -0.79118 173 165 154
0.05689 0.40004 -0.74900 185 172 169
0.05660 0.39967 -0.74912 182 174 163
0.05702 0.40001 -0.74868 173 160 158
0.05706 0.39995 -0.74826 146 132 130
-0.00631 0.41667 -0.91364 164 150 138
-0.00690 0.41591 -0.91388 160 147 136
0.06740 0.40717 -0.78577 167 157 155
0.06694 0.40758 -0.78596 170 160 160
0.06698 0.40713 -0.78594 168 158 155
0.06702 0.40668 -0.78592 165 158 155
0.06827 0.40739 -0.78618 178 169 164
0.06923 0.40763 -0.78670 196 188 179
0.06969 0.40722 -0.78651 203 197 183
0.06695 0.40654 -0.78513 167 160 156
0.06657 0.40605 -0.78528 165 156 154
0.06802 0.40683 -0.78579 179 174 166
0.06901 0.40708 -0.78635 197 191 178
0.06947 0.40667 -0.78616 203 198 184
0.07990 0.41488 -0.82672 188 182 168
0.08047 0.41436 -0.82648 183 178 164
0.06676 0.40601 -0.78482 166 159 153
0.06638 0.40552 -0.78497 164 155 151
0.06796 0.40634 -0.78565 181 176 165
0.06938 0.40675 -0.78675 197 192 179
0.06984 0.40634 -0.78656 202 197 184
-0.03993 0.40533 -0.89440 130 119 107
-0.04055 0.40588 -0.89466 121 108 106
-0.04050 0.40527 -0.89464 120 110 99
-0.04045 0.40466 -0.89461 118 107 102
-0.03941 0.40600 -0.89419 136 124 116
-0.03936 0.40538 -0.89417 136 125 113
0.06581 0.40520 -0.78354 166 158 149
0.06544 0.40472 -0.78369 163 156 152
-0.03987 0.40455 -0.89334 126 118 108
-0.04038 0.40389 -0.89355 117 105 107
-0.03925 0.40400 -0.89308 133 124 114
-0.03930 0.40460 -0.89305 134 126 114
-0.03878 0.40527 -0.89284 139 128 116
-0.03873 0.40466 -0.89281 137 129 114
-0.03868 0.40405 -0.89279 136 125 116
-0.00640 0.41173 -0.90454 165 151 143
0.06538 0.40459 -0.78292 166 161 155
0.06501 0.40411 -0.78307 164 157 158
0.05744 0.39817 -0.74978 183 173 159
0.05709 0.39849 -0.74993 181 173 161
0.05711 0.39814 -0.74991 183 174 164
0.05714 0.39779 -0.74990 184 173 163
-0.03984 0.40421 -0.89508 125 116 111
-0.04036 0.40354 -0.89529 114 106 102
-0.00642 0.41095 -0.90389 164 151 140
0.06455 0.40384 -0.78179 169 163 162
0.06418 0.40337 -0.78194 163 157 158
0.06269 0.40240 -0.77995 162 157 157
0.06225 0.40279 -0.78014 164 158 159
0.06229 0.40236 -0.78012 161 159 158
-0.03967 0.40217 -0.89368 122 114 115
-0.04029 0.40273 -0.89394 114 106 105
-0.04024 0.40212 -0.89391 111 105 105
-0.04019 0.40150 -0.89389 112 104 97
-0.03972 0.40278 -0.89370 124 115 117
-0.03915 0.40284 -0.89347 132 122 122
-0.03910 0.40222 -0.89336 131 121 119
-0.03858 0.40288 -0.89315 138 125 123
-0.03853 0.40227 -0.89312 137 123 121
0.06175 0.40173 -0.77937 162 157 151
0.06132 0.40212 -0.77955 162 161 158
0.06136 0.40169 -0.77953 163 159 151
0.06139 0.40127 -0.77951 162 157 149
0.06179 0.40131 -0.77935 160 154 146
0.06251 0.40189 -0.77966 162 156 151
0.06294 0.40151 -0.77948 174 169 158
-0.03961 0.40149 -0.89318 122 114 104
-0.04013 0.40083 -0.89339 110 104 93
-0.03905 0.40154 -0.89289 131 123 107
-0.03843 0.40099 -0.89263 138 131 121
-0.03848 0.40160 -0.89266 136 127 112
-0.03796 0.40227 -0.89245 140 125 124
-0.03791 0.40165 -0.89242 137 127 115
-0.03786 0.40104 -0.89240 137 128 119
0.06286 0.40158 -0.78006 162 155 146
0.06250 0.40111 -0.78021 161 154 145
0.06330 0.40119 -0.77988 178 171 159
-0.03953 0.40059 -0.89100 121 114 102
-0.04004 0.39993 -0.89121 108 105 91
-0.03897 0.40065 -0.89085 131 125 114
-0.00235 0.40801 -0.90252 154 142 121
-0.00167 0.40739 -0.90224 150 139 123
-0.00129 0.40791 -0.90065 153 144 127
-0.00071 0.40792 -0.90004 161 153 138
-0.00011 0.40796 -0.89966 169 161 142
0.00057 0.40735 -0.89937 173 161 148
0.00068 0.40820 -0.90053 173 163 145
0.00136 0.40759 -0.90024 176 166 147
-0.03947 0.39990 -0.89036 119 113 98
-0.03999 0.39924 -0.89056 111 102 93
-0.03891 0.39995 -0.89013 130 123 110
-0.03835 0.40001 -0.88989 137 130 122
-0.03779 0.40006 -0.88966 137 129 124
-0.03774 0.39946 -0.88964 137 130 125
-0.00592 0.40713 -0.90512 156 146 127
-0.00649 0.40639 -0.90535 149 139 126
-0.00534 0.40713 -0.90448 166 155 135
-0.00465 0.40652 -0.90419 168 156 138
-0.00234 0.40728 -0.90214 157 142 126
-0.00166 0.40666 -0.90185 146 137 127
-0.00123 0.40725 -0.90065 151 142 130
-0.00117 0.40657 -0.90062 150 140 133
-0.00055 0.40664 -0.90037 159 148 138
-0.00066 0.40724 -0.89999 160 151 141
-0.00006 0.40728 -0.89960 169 158 148
0.00062 0.40668 -0.89932 172 160 146
-0.03943 0.39939 -0.89104 120 112 100
-0.03995 0.39873 -0.89125 111 102 99
-0.03887 0.39942 -0.89062 130 124 109
-0.03826 0.39887 -0.89037 134 127 116
-0.03831 0.39947 -0.89039 136 129 117
-0.03770 0.39893 -0.89013 135 128 116
-0.00579 0.40655 -0.90573 155 146 131
-0.00636 0.40581 -0.90596 148 138 129
-0.00522 0.40653 -0.90492 165 154 136
-0.00454 0.40591 -0.90463 167 157 139
-0.03939 0.39883 -0.89140 120 111 107
-0.03990 0.39817 -0.89161 111 101 98
-0.03934 0.39823 -0.89138 122 110 111
-0.03878 0.39828 -0.89115 130 120 120
-0.03882 0.39884 -0.89077 129 122 113
-0.03821 0.39829 -0.89051 134 126 120
-0.00566 0.40596 -0.90628 154 145 135
-0.00624 0.40521 -0.90651 149 137 125
-0.00505 0.40600 -0.90590 163 154 138
-0.00436 0.40538 -0.90561 167 156 138
0.06733 0.40125 -0.78554 162 156 151
0.06695 0.40076 -0.78570 156 150 148
-0.00570 0.40516 -0.90548 155 144 131
-0.00627 0.40442 -0.90571 149 137 125
-0.03872 0.39759 -0.89041 131 117 119
-0.03928 0.39753 -0.89064 122 110 112
-0.03811 0.39704 -0.89015 136 124 117
-0.00573 0.40438 -0.90477 154 143 130
-0.00630 0.40365 -0.90500 150 137 126
0.06874 0.40077 -0.78721 163 157 148
-0.03923 0.39692 -0.89057 118 111 108
-0.03984 0.39747 -0.89083 109 101 103
-0.03979 0.39687 -0.89081 109 103 103
-0.03974 0.39626 -0.89078 108 101 97
-0.03862 0.39637 -0.89032 130 120 115
-0.03866 0.39692 -0.88991 129 119 114
-0.03805 0.39638 -0.88965 135 123 120
-0.03915 0.39605 -0.88829 117 112 107
-0.03966 0.39539 -0.88849 108 100 95
-0.00579 0.40283 -0.90327 152 139 127
-0.00636 0.40210 -0.90350 145 135 119
-0.00595 0.40192 -0.90148 151 140 125
-0.00651 0.40119 -0.90171 145 135 118
-0.00543 0.40187 -0.90044 161 150 133
-0.00475 0.40127 -0.90016 165 155 129
-0.00410 0.40209 -0.90064 163 152 131
-0.00352 0.40210 -0.90004 159 147 125
-0.00292 0.40214 -0.89962 154 142 122
-0.00225 0.40154 -0.89934 144 135 112
-0.00591 0.40123 -0.90128 149 139 124
-0.00648 0.40050 -0.90151 148 134 117
-0.00540 0.40118 -0.90021 159 149 130
-0.00472 0.40057 -0.89993 166 155 134
-0.00406 0.40141 -0.90049 162 152 124
-0.00338 0.40080 -0.90021 156 145 128
-0.00348 0.40143 -0.89994 157 145 119
-0.00280 0.40082 -0.89966 150 139 120
-0.00286 0.40149 -0.89970 151 139 114
0.06930 0.39852 -0.78689 192 187 170
0.06976 0.39811 -0.78670 196 195 178
0.06903 0.39798 -0.78648 192 190 171
0.06948 0.39757 -0.78629 196 195 180
-0.03881 0.39202 -0.88402 115 105 100
-0.03931 0.39138 -0.88422 106 96 95
-0.03826 0.39208 -0.88378 126 113 108
-0.03771 0.39213 -0.88355 134 121 114
-0.03712 0.39159 -0.88330 135 122 117
-0.00641 0.39784 -0.89537 149 141 125
-0.00696 0.39713 -0.89560 145 139 122
-0.03877 0.39151 -0.88471 113 103 100
-0.03927 0.39086 -0.88492 105 97 92
-0.03822 0.39155 -0.88437 124 111 107
-0.03767 0.39160 -0.88415 133 119 113
-0.03707 0.39107 -0.88390 136 126 117
-0.00643 0.39711 -0.89471 149 140 124
-0.00698 0.39640 -0.89493 143 135 121
-0.00632 0.39652 -0.89514 149 138 125
-0.00687 0.39581 -0.89537 144 134 122
-0.00555 0.39673 -0.89622 159 146 134
-0.00489 0.39614 -0.89594 164 151 133
-0.00006 0.39819 -0.90298 142 135 121
-0.00075 0.39880 -0.90327 143 135 114
-0.00069 0.39812 -0.90324 142 135 116
-0.00064 0.39745 -0.90322 142 135 117
0.00068 0.39834 -0.90349 150 142 132
0.00165 0.39868 -0.90546 159 150 137
0.00228 0.39874 -0.90520 165 155 137
0.00234 0.39805 -0.90517 165 155 136
0.00007 0.39757 -0.90351 144 135 120
-0.00050 0.39683 -0.90374 142 134 114
0.00013 0.39689 -0.90348 145 135 120
0.00082 0.39773 -0.90402 151 142 128
0.00175 0.39803 -0.90574 161 151 136
0.00244 0.39740 -0.90545 164 155 138
0.00929 0.39604 -0.91981 165 158 140
0.00867 0.39524 -0.92006 168 162 142
0.00943 0.39535 -0.92023 164 158 138
0.00881 0.39456 -0.92049 166 160 140
0.01021 0.39548 -0.92055 150 144 131
0.00979 0.39480 -0.92200 163 158 134
0.00917 0.39400 -0.92225 165 160 140
0.01050 0.39488 -0.92187 151 146 130
0.01186 0.39534 -0.92542 126 122 120
0.03283 0.39944 -0.94302 153 160 161
0.01008 0.39419 -0.92329 162 158 136
0.00945 0.39338 -0.92354 167 161 141
0.01077 0.39427 -0.92305 152 148 130
0.01473 0.39389 -0.93186 103 101 111
0.01551 0.39320 -0.93154 100 99 114
-0.00651 0.38746 -0.88774 144 135 123
-0.00715 0.38804 -0.88801 140 133 119
-0.00710 0.38741 -0.88798 141 132 117
-0.00705 0.38677 -0.88796 142 132 115
-0.00657 0.38810 -0.88776 143 137 123
-0.00598 0.38815 -0.88752 154 147 131
-0.00581 0.38760 -0.88838 155 144 130
-0.00517 0.38702 -0.88811 160 148 131
0.06528 0.38789 -0.75886 169 156 147
0.06490 0.38823 -0.75902 167 157 145
0.06493 0.38785 -0.75900 167 156 146
0.06496 0.38748 -0.75899 168 159 146
-0.00647 0.38683 -0.88766 147 135 121
-0.00700 0.38614 -0.88788 140 132 114
-0.00579 0.38694 -0.88814 155 142 129
-0.00515 0.38637 -0.88788 160 148 134
0.06592 0.38763 -0.75948 168 158 149
0.06560 0.38721 -0.75961 167 159 147
0.06668 0.38739 -0.76022 167 159 150
0.06635 0.38697 -0.76036 166 159 147
0.06700 0.38741 -0.76004 151 143 138
0.06619 0.38723 -0.75868 124 116 114
0.01072 0.38963 -0.92049 158 154 136
0.01010 0.38883 -0.92074 163 159 141
0.06692 0.38704 -0.76042 166 157 148
0.06659 0.38662 -0.76056 166 158 142
0.06717 0.38706 -0.76017 147 138 135
0.06656 0.38691 -0.75902 120 111 113
0.06596 0.38668 -0.75639 154 143 138
-0.03791 0.38101 -0.88653 104 96 91
-0.03841 0.38036 -0.88674 100 92 83
-0.03735 0.38104 -0.88584 112 102 95
-0.03680 0.38107 -0.88519 119 112 104
-0.03625 0.38111 -0.88473 125 120 110
-0.03575 0.38176 -0.88452 130 120 109
-0.03570 0.38116 -0.88450 130 120 108
-0.03565 0.38057 -0.88448 132 120 110
0.06726 0.38671 -0.76074 164 155 144
0.06694 0.38629 -0.76087 165 156 142
0.06746 0.38672 -0.76042 143 132 129
0.06673 0.38656 -0.75915 116 105 107
0.06711 0.38621 -0.75899 107 95 92
0.06589 0.38629 -0.75627 157 146 145
-0.03788 0.38056 -0.88921 102 96 84
-0.03839 0.37990 -0.88942 99 91 83
-0.03732 0.38058 -0.88840 109 101 92
-0.03676 0.38062 -0.88780 119 109 103
-0.03620 0.38068 -0.88780 128 117 109
-0.03559 0.38014 -0.88755 133 120 110
0.06739 0.38634 -0.76082 162 151 143
0.06707 0.38592 -0.76096 164 155 144
0.06734 0.38631 -0.76025 139 128 125
0.06672 0.38617 -0.75909 113 102 101
0.06711 0.38582 -0.75893 107 96 91
0.06818 0.38634 -0.75906 129 116 116
0.06608 0.38595 -0.75643 161 150 143
-0.03784 0.38004 -0.89081 101 96 84
-0.03835 0.37937 -0.89102 100 90 89
-0.03779 0.37943 -0.89078 102 95 91
-0.03727 0.38007 -0.89023 107 100 90
-0.03671 0.38013 -0.88996 116 106 98
-0.03615 0.38021 -0.89024 129 115 107
-0.03553 0.37966 -0.88998 129 120 108
0.07754 0.39946 -0.99812 121 119 98
0.07856 0.39854 -0.99770 121 121 102
0.06740 0.38596 -0.76079 160 149 142
0.06717 0.38589 -0.76003 134 124 123
0.06716 0.38586 -0.75950 111 101 100
0.06754 0.38551 -0.75933 105 97 91
-0.03723 0.37957 -0.89236 109 98 92
-0.03775 0.37891 -0.89257 103 95 90
-0.03662 0.37902 -0.89210 116 104 93
-0.03667 0.37965 -0.89251 116 104 94
-0.03610 0.37974 -0.89297 126 115 103
-0.00609 0.38307 -0.88800 140 133 115
-0.00663 0.38238 -0.88822 139 133 116
-0.00542 0.38317 -0.88843 151 142 123
0.07636 0.39827 -0.99747 115 110 88
0.07552 0.39718 -0.99781 110 102 84
0.07739 0.39839 -0.99738 120 117 97
0.07840 0.39748 -0.99695 120 119 103
0.06722 0.38556 -0.76107 165 155 141
0.06683 0.38591 -0.76123 164 156 142
0.06686 0.38552 -0.76122 165 155 141
0.06689 0.38514 -0.76120 166 155 141
0.06708 0.38551 -0.76041 156 147 135
0.06682 0.38544 -0.75961 128 119 113
0.06743 0.38552 -0.75973 107 100 97
0.06782 0.38517 -0.75957 103 95 92
0.06795 0.38556 -0.75924 111 101 90
-0.00599 0.38246 -0.88835 140 134 116
-0.00653 0.38176 -0.88856 141 134 120
-0.00529 0.38257 -0.88896 151 143 123
0.07598 0.39715 -0.99601 115 110 90
0.07514 0.39606 -0.99635 111 100 88
0.07750 0.39740 -0.99743 120 116 96
0.07852 0.39649 -0.99701 119 117 101
0.06715 0.38516 -0.76095 164 155 140
0.06707 0.38512 -0.76034 152 144 131
0.06656 0.38501 -0.75930 122 115 108
0.06769 0.38517 -0.75995 104 97 96
0.00937 0.38459 -0.91058 157 151 139
0.00877 0.38382 -0.91083 164 157 142
0.00943 0.38389 -0.91056 157 150 139
0.07540 0.39599 -0.99393 114 107 93
0.07456 0.39491 -0.99427 108 101 90
0.07732 0.39633 -0.99660 118 113 97
0.07833 0.39542 -0.99617 117 116 100
0.06767 0.38490 -0.76250 162 151 136
0.06727 0.38525 -0.76267 164 153 139
0.06731 0.38486 -0.76265 162 151 137
0.06734 0.38447 -0.76264 157 145 129
0.06764 0.38529 -0.76252 164 154 139
0.06736 0.38482 -0.76165 163 152 140
0.06738 0.38480 -0.76114 163 154 142
0.06718 0.38475 -0.76041 149 141 130
0.06659 0.38463 -0.75928 120 112 104
0.06764 0.38478 -0.75985 102 95 89
0.06800 0.38481 -0.75971 102 95 87
-0.03594 0.37812 -0.89832 124 116 103
-0.03589 0.37749 -0.89830 123 112 101
-0.03531 0.37755 -0.89806 128 116 101
0.07529 0.39495 -0.99330 112 107 93
0.07445 0.39387 -0.99364 107 101 88
0.06752 0.38448 -0.76230 153 144 130
0.06696 0.38436 -0.76118 153 145 134
0.06726 0.38439 -0.76096 155 148 137
0.06690 0.38431 -0.76007 142 134 123
0.06661 0.38424 -0.75925 118 108 96
0.06776 0.38441 -0.75992 104 94 83
0.06837 0.38448 -0.76004 104 96 85
-0.03706 0.37739 -0.89923 103 96 91
-0.03769 0.37797 -0.89950 99 94 83
-0.03764 0.37734 -0.89947 99 92 88
-0.03759 0.37671 -0.89945 98 91 91
-0.03647 0.37746 -0.89916 112 103 97
0.06844 0.38427 -0.76430 154 143 127
0.06804 0.38463 -0.76447 157 148 137
0.06807 0.38423 -0.76445 157 147 133
0.06810 0.38383 -0.76443 155 145 134
0.06756 0.38409 -0.76229 140 132 122
0.06708 0.38399 -0.76126 137 132 125
0.06747 0.38364 -0.76109 134 131 121
0.06714 0.38398 -0.76079 141 137 127
0.06713 0.38396 -0.76027 132 126 117
0.06653 0.38385 -0.75912 115 105 98
0.06763 0.38400 -0.75974 107 95 87
0.06798 0.38403 -0.75959 107 96 86
0.06801 0.38402 -0.75911 124 116 102
-0.03701 0.37680 -0.90013 104 96 93
-0.03754 0.37611 -0.90035 97 91 91
-0.03642 0.37687 -0.90016 114 102 96
-0.03583 0.37695 -0.90057 122 108 100
-0.03525 0.37701 -0.90049 128 115 104
-0.03471 0.37770 -0.90027 127 117 100
-0.03466 0.37707 -0.90024 128 116 105
-0.03460 0.37644 -0.90022 129 119 108
0.06879 0.38392 -0.76463 145 135 127
0.06788 0.38374 -0.76258 124 118 113
0.06684 0.38353 -0.75991 126 121 113
0.06637 0.38344 -0.75891 113 102 99
0.06676 0.38309 -0.75875 106 97 90
0.06724 0.38355 -0.75929 108 95 91
0.06763 0.38359 -0.75919 108 97 87
0.06843 0.38369 -0.75949 129 120 105
-0.03696 0.37614 -0.89943 105 97 91
-0.03637 0.37622 -0.89970 113 103 94
-0.03578 0.37630 -0.90002 122 109 100
-0.03514 0.37572 -0.89975 127 117 105
-0.03519 0.37638 -0.90040 128 117 107
-0.03455 0.37580 -0.90014 129 120 105
0.06879 0.38352 -0.76457 139 132 130
0.06919 0.38316 -0.76440 127 123 122
0.06746 0.38327 -0.76156 127 124 114
0.06749 0.38288 -0.76154 134 129 118
0.06693 0.38315 -0.75995 127 121 113
0.06645 0.38306 -0.75894 112 103 98
0.06683 0.38272 -0.75878 106 97 90
0.06728 0.38315 -0.75878 109 101 90
-0.03749 0.37548 -0.90042 97 92 90
-0.03813 0.37605 -0.90069 93 88 87
-0.03808 0.37542 -0.90066 90 87 83
-0.03803 0.37479 -0.90064 87 85 78
-0.03691 0.37554 -0.90031 103 97 89
-0.03632 0.37561 -0.90048 111 104 91
-0.03568 0.37504 -0.90021 121 111 101
-0.03573 0.37569 -0.90080 121 110 101
0.06859 0.38309 -0.76430 135 130 127
0.06746 0.38286 -0.76098 137 131 122
0.06696 0.38277 -0.75994 126 118 115
0.06663 0.38271 -0.75908 112 103 100
0.06702 0.38236 -0.75892 107 95 93
0.06742 0.38279 -0.75888 112 103 92
-0.03745 0.37487 -0.90123 96 91 82
-0.03798 0.37418 -0.90144 86 83 76
-0.03686 0.37493 -0.90103 102 97 87
-0.03627 0.37499 -0.90089 112 104 92
-0.03508 0.37514 -0.90140 127 116 107
-0.03449 0.37520 -0.90116 129 118 107
-0.03444 0.37456 -0.90114 128 118 105
0.06929 0.38282 -0.76610 144 140 128
0.06901 0.38276 -0.76526 139 134 123
0.06876 0.38271 -0.76444 130 124 117
0.06895 0.38272 -0.76410 128 123 117
0.06825 0.38261 -0.76282 126 122 116
0.06775 0.38252 -0.76176 128 124 120
0.06741 0.38246 -0.76088 125 121 121
0.06711 0.38240 -0.76004 115 109 111
0.06661 0.38232 -0.75902 109 99 100
0.06700 0.38197 -0.75886 103 95 95
0.06732 0.38239 -0.75873 117 104 96
-0.03740 0.37427 -0.90245 95 90 81
-0.03794 0.37357 -0.90267 88 80 78
0.07907 0.38440 -0.80157 139 133 128
0.07864 0.38386 -0.80175 137 134 123
0.07967 0.38447 -0.80156 152 149 138
0.08715 0.38529 -0.80150 150 148 137
0.08663 0.38575 -0.80172 151 150 137
0.08668 0.38524 -0.80170 150 151 138
0.08711 0.38580 -0.80152 150 150 137
0.08758 0.38584 -0.80132 147 146 135
0.08767 0.38482 -0.80128 148 143 124
0.06862 0.38235 -0.76645 134 128 125
0.06866 0.38195 -0.76643 133 126 117
0.06903 0.38198 -0.76628 135 128 118
0.06914 0.38240 -0.76645 138 133 127
0.06928 0.38241 -0.76605 138 133 124
0.06928 0.38239 -0.76549 131 126 116
0.06886 0.38232 -0.76449 119 113 104
0.06902 0.38233 -0.76413 114 110 103
0.06836 0.38223 -0.76289 108 107 102
0.06798 0.38216 -0.76196 107 106 107
0.06736 0.38206 -0.76078 107 103 109
0.06775 0.38171 -0.76061 97 92 94
0.06703 0.38200 -0.75992 102 97 101
0.06742 0.38165 -0.75975 99 93 94
0.06662 0.38193 -0.75897 102 95 98
0.06741 0.38202 -0.75877 116 106 100
-0.03735 0.37365 -0.90329 95 90 85
-0.03789 0.37295 -0.90351 88 79 81
-0.03670 0.37307 -0.90302 104 94 84
0.07840 0.38380 -0.80064 136 135 121
0.07798 0.38326 -0.80081 135 133 128
0.07915 0.38389 -0.80081 152 153 136
0.08553 0.38459 -0.80101 153 152 143
0.08502 0.38505 -0.80122 173 172 162
0.08506 0.38454 -0.80120 174 169 158
0.08510 0.38403 -0.80118 171 164 151
0.08609 0.38464 -0.80092 151 151 138
0.08695 0.38474 -0.80119 150 147 130
0.08746 0.38428 -0.80097 149 143 125
0.06889 0.38195 -0.76557 133 127 118
0.06855 0.38151 -0.76571 142 133 117
0.06877 0.38192 -0.76489 124 116 109
0.06854 0.38188 -0.76410 108 100 94
0.06853 0.38187 -0.76356 98 92 90
0.06818 0.38181 -0.76265 92 90 90
0.06773 0.38173 -0.76165 93 91 93
0.06813 0.38138 -0.76148 98 94 92
0.06734 0.38167 -0.76071 96 92 96
0.06773 0.38132 -0.76055 100 93 90
0.06680 0.38156 -0.75861 100 95 95
0.06648 0.38115 -0.75874 102 93 92
0.06692 0.38157 -0.75822 113 109 102
0.07774 0.38321 -0.79971 135 135 125
0.07732 0.38267 -0.79988 135 132 132
0.08618 0.38414 -0.80095 154 148 136
0.08669 0.38368 -0.80073 154 144 128
0.08645 0.38416 -0.80051 151 144 127
0.08696 0.38370 -0.80030 151 144 126
0.06918 0.38158 -0.76583 137 130 115
0.06873 0.38150 -0.76426 109 99 95
0.06865 0.38148 -0.76363 99 91 93
0.06828 0.38142 -0.76270 93 88 92
0.06798 0.38137 -0.76185 94 91 91
0.06700 0.38120 -0.75876 102 94 95
0.06668 0.38079 -0.75889 104 92 89
0.06717 0.38121 -0.75843 118 113 105
0.07713 0.38263 -0.79885 136 136 130
0.07671 0.38209 -0.79902 137 132 125
0.07873 0.38282 -0.80013 158 159 147
0.08582 0.38360 -0.80122 153 148 135
0.08539 0.38304 -0.80139 161 160 143
0.07043 0.38138 -0.76940 145 136 126
0.07047 0.38097 -0.76938 147 136 123
0.07085 0.38101 -0.76923 145 134 120
0.06947 0.38123 -0.76665 141 133 113
0.06936 0.38120 -0.76597 135 127 109
0.06887 0.38112 -0.76435 113 106 99
0.06884 0.38111 -0.76378 105 100 98
0.06840 0.38104 -0.76279 100 97 96
0.06813 0.38100 -0.76196 104 101 95
0.06774 0.38094 -0.76103 107 101 94
0.06745 0.38089 -0.76021 104 95 91
0.06784 0.38055 -0.76005 103 92 87
0.06708 0.38083 -0.75880 104 94 89
0.06718 0.38083 -0.75840 123 115 104
0.01519 0.37721 -0.90082 143 150 153
0.08566 0.38306 -0.80095 150 149 135
0.08523 0.38251 -0.80113 158 158 140
0.08613 0.38311 -0.80076 152 148 132
0.08661 0.38316 -0.80056 153 144 128
0.08665 0.38265 -0.80054 150 142 125
0.06986 0.38087 -0.76701 136 128 110
0.07026 0.38050 -0.76684 129 120 104
0.06955 0.38082 -0.76613 130 120 105
0.06918 0.38077 -0.76519 125 114 102
0.06906 0.38074 -0.76451 124 115 103
0.06870 0.38069 -0.76358 120 112 102
0.06840 0.38065 -0.76273 118 112 102
0.06826 0.38062 -0.76205 124 118 108
0.06807 0.38059 -0.76133 117 110 101
0.06766 0.38053 -0.76038 106 97 93
0.06805 0.38018 -0.76022 103 92 87
0.06745 0.38049 -0.75913 105 94 84
0.06690 0.38041 -0.75806 128 119 106
-0.03714 0.37110 -0.90396 91 90 89
-0.03779 0.37169 -0.90423 82 81 86
-0.03774 0.37104 -0.90420 80 81 80
-0.03769 0.37040 -0.90418 79 81 74
-0.03655 0.37116 -0.90316 98 94 88
-0.03595 0.37121 -0.90281 105 98 93
-0.03536 0.37127 -0.90260 114 105 99
-0.03476 0.37133 -0.90223 123 111 102
-0.03422 0.37203 -0.90201 127 114 110
-0.03417 0.37139 -0.90199 129 116 104
0.00837 0.37576 -0.89708 126 127 111
0.00894 0.37649 -0.89685 86 93 85
0.00900 0.37582 -0.89682 88 93 87
0.08208 0.38222 -0.80428 165 164 154
0.08245 0.38225 -0.80395 180 181 167
0.08297 0.38179 -0.80373 184 186 169
0.08573 0.38256 -0.80096 151 149 132
0.08624 0.38210 -0.80075 149 143 125
0.08620 0.38260 -0.80077 150 145 126
0.08672 0.38214 -0.80055 149 141 127
0.06927 0.38037 -0.76468 137 126 112
0.06886 0.38031 -0.76370 136 124 111
0.06890 0.38031 -0.76320 139 128 114
0.06897 0.38031 -0.76275 142 132 121
0.06829 0.38022 -0.76151 122 112 106
0.06786 0.38017 -0.76054 106 96 92
0.06825 0.37982 -0.76037 102 90 87
-0.03709 0.37046 -0.90399 90 90 84
-0.03763 0.36976 -0.90421 79 78 72
-0.03649 0.37052 -0.90324 98 91 89
-0.03590 0.37057 -0.90296 104 96 95
-0.03525 0.36999 -0.90268 114 103 97
-0.03530 0.37063 -0.90285 114 105 98
-0.03471 0.37070 -0.90290 122 111 98
-0.03406 0.37011 -0.90263 127 114 100
-0.03411 0.37076 -0.90313 128 116 99
-0.03356 0.37146 -0.90291 130 118 103
-0.03351 0.37082 -0.90289 129 118 100
-0.03346 0.37018 -0.90286 130 118 103
0.08776 0.38291 -0.86308 148 148 128
0.08833 0.38364 -0.86285 150 152 130
0.08838 0.38297 -0.86283 150 149 129
0.08844 0.38230 -0.86280 150 146 127
0.08566 0.38204 -0.80080 151 147 130
0.08617 0.38158 -0.80059 150 144 130
0.06953 0.38000 -0.76490 147 137 119
0.06917 0.37995 -0.76398 148 138 122
0.06893 0.37992 -0.76319 152 142 127
0.06903 0.37992 -0.76275 147 137 125
0.06844 0.37985 -0.76162 121 109 104
0.06846 0.37983 -0.76007 106 94 87
0.06887 0.37988 -0.75998 135 125 112
-0.03704 0.36982 -0.90443 89 88 82
-0.03758 0.36912 -0.90465 79 76 69
-0.03644 0.36988 -0.90381 97 89 91
-0.03584 0.36994 -0.90383 104 95 95
-0.03519 0.36936 -0.90356 113 101 98
-0.03465 0.37007 -0.90406 123 110 99
0.08869 0.38234 -0.86454 147 143 124
0.07219 0.37991 -0.77111 144 137 120
0.07177 0.38029 -0.77128 147 139 124
0.07180 0.37988 -0.77127 147 141 123
0.07184 0.37946 -0.77125 146 139 122
0.07261 0.37954 -0.77093 142 132 115
0.06934 0.37957 -0.76411 155 145 129
0.06932 0.37956 -0.76355 157 147 134
0.06934 0.37956 -0.76303 145 136 126
0.06903 0.37952 -0.76218 118 106 101
-0.03698 0.36918 -0.90373 86 85 80
-0.03753 0.36848 -0.90395 80 75 71
-0.03639 0.36924 -0.90323 96 89 93
-0.03579 0.36929 -0.90302 103 94 96
-0.03460 0.36942 -0.90380 122 109 100
-0.03394 0.36884 -0.90353 130 118 99
-0.03399 0.36948 -0.90405 128 116 102
-0.03339 0.36954 -0.90380 131 119 103
-0.03334 0.36890 -0.90377 132 121 97
0.07217 0.37949 -0.77103 143 135 117
0.07182 0.37904 -0.77118 144 137 125
0.07221 0.37907 -0.77102 143 135 119
0.06964 0.37920 -0.76384 157 144 135
0.06931 0.37877 -0.76398 155 145 132
0.06962 0.37919 -0.76328 143 131 127
0.06956 0.37918 -0.76268 116 103 99
0.06995 0.37883 -0.76251 103 90 86
-0.03693 0.36854 -0.90387 87 83 79
-0.03747 0.36784 -0.90409 82 71 72
-0.03688 0.36790 -0.90384 89 82 82
-0.03628 0.36796 -0.90359 96 90 89
-0.03634 0.36860 -0.90353 95 90 92
-0.03574 0.36866 -0.90334 103 95 95
-0.03509 0.36807 -0.90307 113 100 94
-0.03514 0.36872 -0.90383 113 101 97
-0.03449 0.36813 -0.90355 123 110 98
-0.03454 0.36878 -0.90428 122 110 99
-0.03389 0.36819 -0.90400 129 118 96
0.08742 0.38086 -0.86478 124 121 107
0.09068 0.38119 -0.86768 138 138 122
0.09242 0.38137 -0.86927 145 145 128
0.07015 0.37885 -0.76432 155 145 135
0.06982 0.37842 -0.76446 155 148 131
0.07014 0.37885 -0.76377 138 128 122
0.07027 0.37886 -0.76337 112 100 95
0.07067 0.37850 -0.76321 101 91 89
0.07103 0.37894 -0.76310 104 91 89
-0.03569 0.36801 -0.90371 104 95 92
-0.03563 0.36737 -0.90369 105 93 92
0.07033 0.37847 -0.76446 155 148 131
0.06999 0.37803 -0.76460 156 148 128
0.07044 0.37848 -0.76404 133 123 113
0.07098 0.37853 -0.76406 106 96 92
0.07138 0.37817 -0.76389 100 90 89
0.07237 0.37867 -0.76442 103 93 90
-0.03682 0.36726 -0.90302 88 83 83
-0.03742 0.36720 -0.90326 80 71 69
-0.03736 0.36656 -0.90324 78 73 73
-0.03623 0.36731 -0.90351 96 90 90
-0.03558 0.36673 -0.90323 104 94 93
-0.03503 0.36743 -0.90413 112 99 93
-0.03443 0.36749 -0.90463 122 109 97
-0.03383 0.36755 -0.90438 128 116 98
0.07281 0.37831 -0.76483 101 92 88
0.07602 0.37861 -0.76758 126 118 110
-0.03677 0.36662 -0.90333 87 84 85
-0.03731 0.36592 -0.90355 77 73 79
-0.03618 0.36668 -0.90296 94 91 91
-0.03553 0.36609 -0.90269 101 93 92
-0.03498 0.36679 -0.90373 111 100 94
-0.03438 0.36684 -0.90411 121 110 97
-0.03373 0.36626 -0.90384 128 116 102
-0.03377 0.36690 -0.90492 128 117 101
-0.03322 0.36761 -0.90470 130 120 101
-0.03317 0.36696 -0.90467 130 119 103
-0.03312 0.36631 -0.90465 129 117 106
0.09824 0.37945 -0.94864 151 154 131
0.09733 0.38027 -0.94902 148 151 129
0.09740 0.37937 -0.94899 152 155 131
0.09816 0.38035 -0.94868 147 150 129
0.09900 0.38043 -0.94833 150 148 129
0.09910 0.37954 -0.94836 152 153 133
0.09986 0.38052 -0.94805 151 146 129
0.10741 0.38032 -0.95319 144 144 121
0.10819 0.38132 -0.95288 140 139 115
0.10782 0.38036 -0.95192 140 141 120
0.10859 0.38136 -0.95160 140 138 115
0.10867 0.38045 -0.95156 139 139 116
-0.03672 0.36596 -0.90505 86 84 86
-0.03727 0.36526 -0.90528 75 71 77
-0.03612 0.36602 -0.90469 93 90 90
-0.03492 0.36613 -0.90523 111 101 92
-0.03487 0.36549 -0.90520 112 99 92
-0.03432 0.36619 -0.90535 120 111 96
0.09742 0.37845 -0.95105 155 158 135
0.09767 0.37849 -0.94940 156 159 135
0.09858 0.37767 -0.94902 161 164 145
0.09879 0.37859 -0.94966 157 160 138
0.09970 0.37777 -0.94927 160 162 145
0.10758 0.37940 -0.95336 146 148 126
0.10851 0.37857 -0.95297 148 151 132
0.10793 0.37945 -0.95196 144 147 128
0.10852 0.37951 -0.95107 141 143 125
0.10930 0.38051 -0.95076 140 139 118
0.10937 0.37960 -0.95072 143 140 122
0.07768 0.37793 -0.76917 131 121 115
0.07778 0.37794 -0.76872 155 145 135
0.07820 0.37756 -0.76855 159 151 135
-0.03667 0.36532 -0.90491 85 81 83
-0.03721 0.36461 -0.90513 73 69 75
-0.03607 0.36538 -0.90471 94 88 85
-0.03547 0.36543 -0.90496 102 92 88
0.09800 0.37758 -0.95213 159 162 140
0.09892 0.37676 -0.95175 162 164 145
0.09870 0.37766 -0.95147 159 163 141
0.09962 0.37683 -0.95108 162 164 146
0.10833 0.37853 -0.95473 152 154 133
0.10926 0.37769 -0.95433 150 152 131
0.10945 0.37866 -0.95278 146 148 132
0.10952 0.37774 -0.95274 148 150 131
0.11038 0.37782 -0.95239 149 147 129
0.09850 0.37879 -0.83711 138 135 119
0.09788 0.37935 -0.83737 138 136 120
0.09798 0.37812 -0.83732 134 130 108
0.09845 0.37941 -0.83713 136 135 121
0.09902 0.37946 -0.83689 136 135 123
0.09907 0.37885 -0.83687 136 136 123
0.07754 0.37750 -0.76898 134 127 119
0.10877 0.37763 -0.95545 156 158 136
0.10798 0.37662 -0.95577 158 156 135
0.10970 0.37679 -0.95506 151 152 130
0.09886 0.37820 -0.83750 137 133 113
0.09834 0.37753 -0.83771 131 131 109
0.09891 0.37759 -0.83748 134 130 110
0.09943 0.37826 -0.83726 137 134 120
0.09995 0.37893 -0.83705 134 134 128
0.10000 0.37831 -0.83703 136 135 130
0.07769 0.37710 -0.76853 157 148 132
0.07811 0.37672 -0.76835 163 149 139
0.09834 0.37567 -0.95930 164 167 148
0.09841 0.37475 -0.95927 164 167 149
0.09927 0.37483 -0.95891 164 167 150
0.07782 0.37669 -0.76861 159 148 136
0.07824 0.37631 -0.76843 163 149 143
0.09608 0.37451 -0.96092 167 170 150
0.09530 0.37349 -0.96124 164 165 144
0.09702 0.37366 -0.96052 167 170 152
0.07774 0.37626 -0.76847 159 149 137
0.07816 0.37588 -0.76830 162 151 138
0.07727 0.37580 -0.76850 148 140 124
0.07696 0.37535 -0.76868 120 119 108
0.07740 0.37540 -0.76803 158 151 135
0.07782 0.37502 -0.76785 160 150 143
-0.03635 0.36145 -0.90464 78 76 71
-0.03690 0.36075 -0.90486 68 63 68
-0.03575 0.36150 -0.90475 91 85 79
-0.03515 0.36156 -0.90466 98 90 91
0.07698 0.37494 -0.76810 150 147 134
0.07740 0.37457 -0.76792 158 151 141
-0.03630 0.36083 -0.90384 79 73 73
-0.03684 0.36013 -0.90406 69 63 67
-0.03570 0.36088 -0.90413 91 83 79
-0.03510 0.36093 -0.90425 98 89 89
-0.03451 0.36102 -0.90280 106 95 95
0.09141 0.37465 -0.80830 146 141 135
0.09087 0.37514 -0.80852 156 156 142
0.09092 0.37460 -0.80850 153 154 144
0.09186 0.37523 -0.80811 145 140 130
0.09191 0.37470 -0.80809 146 140 135
0.09195 0.37417 -0.80807 147 140 135
0.07673 0.37451 -0.76779 153 147 134
-0.03624 0.36026 -0.90152 81 75 75
-0.03678 0.35957 -0.90174 68 63 63
-0.03619 0.35962 -0.90150 79 75 74
-0.03560 0.35968 -0.90125 89 83 83
0.09059 0.37405 -0.80802 151 150 139
0.09005 0.37453 -0.80824 176 176 163
0.09009 0.37400 -0.80822 176 175 161
0.09014 0.37347 -0.80820 176 172 156
0.09112 0.37357 -0.80779 146 140 128
0.09159 0.37413 -0.80844 146 140 133
0.09213 0.37364 -0.80821 146 140 128
0.07647 0.37410 -0.76693 158 150 134
0.07682 0.37455 -0.76679 160 149 142
0.07685 0.37414 -0.76677 161 149 137
0.07688 0.37373 -0.76675 162 149 135
0.09071 0.37352 -0.80810 150 147 131
0.09026 0.37294 -0.80828 172 169 146
0.09125 0.37304 -0.80787 144 141 126
0.07601 0.37365 -0.76696 156 146 129
0.07642 0.37327 -0.76678 160 148 135
0.07531 0.37318 -0.76674 142 136 117
0.07533 0.37320 -0.76622 156 146 129
0.07575 0.37283 -0.76605 159 148 135
0.07563 0.37265 -0.77037 149 139 126
0.07528 0.37220 -0.77051 152 141 125
0.07436 0.37262 -0.76847 123 115 107
0.07486 0.37277 -0.76569 156 146 129
0.07527 0.37240 -0.76552 158 148 134
0.00110 0.36157 -0.88154 135 125 110
0.00047 0.36214 -0.88181 130 120 107
0.00052 0.36151 -0.88178 129 119 107
0.00057 0.36089 -0.88176 129 120 105
0.00229 0.36168 -0.88124 144 140 120
0.00282 0.36236 -0.88103 144 143 122
0.00288 0.36174 -0.88100 145 143 122
0.00293 0.36111 -0.88098 147 141 124
0.07458 0.37219 -0.76921 147 138 125
0.07423 0.37174 -0.76935 151 140 126
0.07332 0.37217 -0.76733 119 110 101
0.07267 0.37216 -0.76610 96 88 82
0.07308 0.37180 -0.76593 89 79 81
0.07445 0.37232 -0.76576 145 138 123
0.07468 0.37236 -0.76545 155 146 130
0.07509 0.37199 -0.76528 157 148 134
-0.03598 0.35687 -0.90626 74 67 68
-0.03653 0.35616 -0.90648 63 57 59
-0.03537 0.35693 -0.90602 86 77 80
-0.03477 0.35697 -0.90619 91 82 85
0.00146 0.36089 -0.88336 134 125 111
0.00092 0.36020 -0.88358 129 122 106
0.00198 0.36096 -0.88278 141 132 117
0.00262 0.36039 -0.88251 146 138 125
0.00246 0.36103 -0.88187 145 139 121
0.00309 0.36047 -0.88161 147 140 126
0.07364 0.37174 -0.76817 146 134 123
0.07329 0.37129 -0.76831 151 140 128
0.07222 0.37172 -0.76613 116 102 98
0.07227 0.37174 -0.76563 95 84 83
0.07268 0.37138 -0.76546 87 78 78
0.07441 0.37189 -0.76621 121 114 103
0.07405 0.37190 -0.76530 148 140 121
0.07446 0.37154 -0.76513 156 148 131
-0.03592 0.35619 -0.90677 74 66 65
-0.03647 0.35548 -0.90699 62 58 62
-0.03532 0.35625 -0.90649 84 76 78
-0.03471 0.35630 -0.90664 90 82 85
0.00175 0.36021 -0.88481 133 126 115
0.00121 0.35952 -0.88503 126 123 106
0.00239 0.35963 -0.88455 140 135 121
0.07318 0.37132 -0.76763 144 132 120
0.07186 0.37130 -0.76569 113 100 93
0.07162 0.37132 -0.76491 95 82 82
0.07203 0.37095 -0.76474 82 77 78
0.07325 0.37145 -0.76497 125 117 107
-0.03587 0.35557 -0.90620 73 66 66
-0.03642 0.35486 -0.90642 61 60 63
-0.03527 0.35566 -0.90532 84 75 77
0.07205 0.37085 -0.76695 149 140 128
0.07164 0.37122 -0.76712 150 140 128
0.07167 0.37081 -0.76710 150 139 129
0.07170 0.37040 -0.76709 149 140 129
0.07243 0.37089 -0.76679 139 130 117
0.07275 0.37105 -0.76387 151 142 127
0.07315 0.37069 -0.76370 156 144 127
-0.00407 0.35860 -0.88246 132 126 111
-0.00460 0.35792 -0.88268 128 122 105
-0.00344 0.35804 -0.88220 140 135 120
0.11697 0.36754 -0.89119 114 108 91
0.07164 0.37043 -0.76647 148 140 129
0.07130 0.36999 -0.76661 150 139 130
0.07214 0.37047 -0.76644 133 125 115
0.07311 0.37064 -0.76472 131 125 114
0.07275 0.37065 -0.76382 152 142 125
0.07315 0.37029 -0.76365 156 145 128
0.09682 0.36032 -0.98199 176 179 166
0.09583 0.36122 -0.98241 171 176 161
0.09599 0.35925 -0.98233 176 178 168
0.09782 0.35943 -0.98158 181 186 172
0.09804 0.36040 -0.98236 178 183 169
0.09903 0.35950 -0.98195 181 185 172
0.07124 0.37002 -0.76599 148 139 131
0.07090 0.36958 -0.76613 150 137 128
0.07133 0.37005 -0.76554 128 121 116
0.07232 0.37022 -0.76386 135 129 116
0.07227 0.37024 -0.76329 152 143 126
0.07268 0.36988 -0.76312 157 146 130
0.09672 0.35935 -0.98151 180 183 170
0.09589 0.35828 -0.98185 181 184 172
0.09681 0.35837 -0.98147 184 188 171
0.09772 0.35846 -0.98110 185 189 171
0.10379 0.36077 -0.96591 187 190 172
0.10460 0.36180 -0.96558 181 184 169
0.11341 0.36135 -0.96841 177 182 170
0.11423 0.36241 -0.96808 173 176 166
0.07052 0.36960 -0.76518 147 137 131
0.07018 0.36917 -0.76532 148 137 126
0.07046 0.36963 -0.76458 123 116 114
0.07087 0.36927 -0.76441 92 82 84
0.10336 0.35985 -0.96473 195 198 179
0.11350 0.36039 -0.96840 181 189 175
0.12097 0.36095 -0.96820 171 173 162
0.12180 0.36202 -0.96786 167 169 156
0.12080 0.36109 -0.96567 168 170 157
0.12162 0.36214 -0.96534 164 167 147
0.12178 0.36021 -0.96526 168 170 148
0.07051 0.36920 -0.76512 146 135 127
0.07017 0.36876 -0.76526 147 139 122
0.07052 0.36923 -0.76458 119 108 105
0.07208 0.36938 -0.76405 113 107 100
0.01183 0.35603 -0.90243 100 101 102
0.09707 0.35754 -0.97926 188 191 175
0.09616 0.35745 -0.97964 186 189 173
0.09624 0.35647 -0.97960 186 191 176
0.09805 0.35665 -0.97885 189 197 182
0.09836 0.35760 -0.97983 190 194 181
0.09919 0.35866 -0.97949 189 192 178
0.09927 0.35769 -0.97946 191 194 184
0.09935 0.35671 -0.97942 190 193 182
0.10289 0.35894 -0.96347 199 203 186
0.10384 0.35808 -0.96307 197 204 190
0.11018 0.35934 -0.96567 194 202 186
0.11156 0.35940 -0.96633 190 198 181
0.11298 0.35945 -0.96709 185 193 177
0.12096 0.35998 -0.96797 175 177 162
0.12194 0.35910 -0.96756 176 178 160
0.12076 0.36013 -0.96540 172 173 156
0.12174 0.35925 -0.96499 172 175 153
0.07009 0.36880 -0.76462 145 135 122
0.06975 0.36836 -0.76476 145 139 121
0.07022 0.36883 -0.76422 114 103 99
0.07158 0.36898 -0.76349 118 111 103
0.07199 0.36862 -0.76332 147 139 123
0.01217 0.35526 -0.90388 100 101 98
0.01287 0.35463 -0.90358 64 70 81
0.03818 0.35364 -0.95832 67 74 89
0.03745 0.35270 -0.95861 62 72 84
0.03882 0.35375 -0.95738 91 91 96
0.03969 0.35297 -0.95701 102 94 90
0.07015 0.36840 -0.76464 141 134 120
0.07024 0.36843 -0.76419 109 99 95
0.01251 0.35449 -0.90532 100 102 98
0.03858 0.35272 -0.95966 70 75 88
0.03785 0.35177 -0.95995 62 71 84
0.03945 0.35278 -0.95959 92 92 98
0.04032 0.35200 -0.95922 101 95 96
0.11858 0.35791 -0.96716 181 189 179
0.11776 0.35685 -0.96749 186 193 176
0.11866 0.35694 -0.96712 186 193 180
0.11956 0.35703 -0.96675 186 193 179
0.06962 0.36796 -0.76457 146 140 124
0.06922 0.36833 -0.76474 144 138 120
0.06925 0.36793 -0.76473 145 138 123
0.06928 0.36753 -0.76471 147 138 129
0.06988 0.36800 -0.76430 137 129 117
0.07028 0.36764 -0.76414 100 91 90
0.01296 0.35368 -0.90731 98 104 100
0.01367 0.35304 -0.90701 63 73 84
0.03887 0.35180 -0.96052 71 75 89
0.03814 0.35086 -0.96082 61 71 92
0.03968 0.35188 -0.96022 93 92 101
0.04056 0.35109 -0.95985 99 98 94
0.06987 0.36757 -0.76479 148 138 127
0.06953 0.36713 -0.76492 147 135 130
0.07011 0.36760 -0.76449 136 125 115
0.01330 0.35289 -0.90873 98 103 102
0.03882 0.35097 -0.95999 71 77 95
0.03809 0.35002 -0.96029 60 71 93
0.03966 0.35104 -0.95978 93 93 103
0.04053 0.35025 -0.95942 100 96 90
0.09523 0.35422 -0.96882 193 199 187
0.09428 0.35508 -0.96922 187 195 182
0.09435 0.35414 -0.96918 194 198 188
0.09443 0.35319 -0.96914 198 203 195
0.09516 0.35517 -0.96885 188 195 183
0.09604 0.35526 -0.96849 189 193 183
0.09609 0.35431 -0.96840 189 195 182
0.09689 0.35535 -0.96807 189 191 180
0.09697 0.35440 -0.96803 186 192 178
0.09705 0.35345 -0.96800 185 194 179
0.06971 0.36717 -0.76456 146 135 127
0.06937 0.36673 -0.76470 145 134 126
0.07007 0.36720 -0.76440 130 120 113
0.03860 0.35017 -0.95876 71 79 98
0.03787 0.34923 -0.95906 58 70 88
0.03942 0.35024 -0.95852 92 92 102
0.04029 0.34946 -0.95815 101 95 88
0.06951 0.36677 -0.76431 144 135 123
0.06918 0.36634 -0.76445 146 135 120
0.07021 0.36680 -0.76451 124 117 110
0.03830 0.34940 -0.95722 70 79 95
0.03758 0.34846 -0.95752 56 67 90
0.03917 0.34946 -0.95718 93 92 101
0.04004 0.34868 -0.95681 101 94 92
0.08507 0.34925 -0.99974 122 126 111
0.08609 0.34832 -0.99931 126 129 112
0.06969 0.36637 -0.76445 143 134 117
0.06936 0.36594 -0.76459 145 134 118
0.06968 0.36641 -0.76390 119 109 99
0.07008 0.36605 -0.76373 84 79 75
0.03799 0.34864 -0.95563 69 77 94
0.03727 0.34771 -0.95592 56 66 92
0.03885 0.34870 -0.95557 93 92 101
0.03972 0.34793 -0.95521 100 94 91
0.08835 0.35049 -0.97405 163 171 157
0.08916 0.35153 -0.97372 166 174 160
0.08923 0.35057 -0.97368 167 174 163
0.07048 0.36596 -0.76523 141 132 115
0.07014 0.36552 -0.76537 144 134 115
0.07008 0.36601 -0.76426 112 104 92
0.07048 0.36565 -0.76409 81 78 68
0.08845 0.34953 -0.97406 162 170 155
0.08958 0.34958 -0.97433 168 175 161
0.09039 0.35062 -0.97400 171 177 166
0.07045 0.36561 -0.76461 107 102 88
0.07086 0.36524 -0.76444 80 74 67
0.07320 0.36509 -0.76800 138 130 112
0.01386 0.34857 -0.90968 99 97 92
0.01442 0.34798 -0.90856 63 69 77
0.01514 0.34734 -0.90826 54 62 85
0.01434 0.34733 -0.90781 63 68 82
0.01505 0.34669 -0.90751 54 60 83
-0.03486 0.34341 -0.90405 61 52 55
-0.03541 0.34270 -0.90427 55 53 50
-0.03427 0.34355 -0.90292 70 63 65
0.01440 0.34594 -0.90749 63 69 83
0.01511 0.34530 -0.90719 53 63 81
0.03546 0.34369 -0.94311 82 82 93
0.03470 0.34362 -0.94343 59 66 81
0.03622 0.34377 -0.94280 96 93 94
0.08845 0.34415 -0.97003 178 181 171
-0.03482 0.34291 -0.90249 59 54 56
-0.03536 0.34222 -0.90271 55 52 55
-0.03423 0.34304 -0.90162 69 64 61
-0.03364 0.34311 -0.90127 80 73 66
-0.03299 0.34252 -0.90100 87 79 72
0.01418 0.34536 -0.90608 62 68 80
0.01489 0.34473 -0.90578 52 63 77
0.08509 0.34311 -0.96896 170 175 162
0.08580 0.34323 -0.96819 176 182 169
0.08666 0.34332 -0.96780 182 187 177
0.08785 0.34334 -0.96825 187 191 184
0.08932 0.34331 -0.96940 194 198 190
0.09110 0.34322 -0.97132 200 204 194
-0.03296 0.34208 -0.89913 87 79 76
0.09269 0.34130 -0.97223 211 216 201
-0.03291 0.34147 -0.89893 89 79 79
-0.03176 0.34171 -0.89726 104 94 84
-0.03112 0.34113 -0.89700 109 101 86
0.01061 0.34398 -0.89745 137 133 115
0.01004 0.34324 -0.89769 136 130 109
0.01068 0.34330 -0.89750 136 129 111
0.01011 0.34256 -0.89773 135 127 110
0.01074 0.34262 -0.89747 136 128 109
0.01123 0.34340 -0.89681 125 119 107
0.07945 0.36087 -0.77172 128 120 109
0.07981 0.36133 -0.77157 144 133 118
0.01136 0.34269 -0.89718 126 121 106
0.01079 0.34195 -0.89741 134 129 112
0.07982 0.36042 -0.77205 131 122 111
0.01155 0.34194 -0.89781 126 123 111
0.01097 0.34120 -0.89805 135 128 115
0.01220 0.34199 -0.89766 101 101 99
0.01288 0.34138 -0.89738 68 72 75
0.08018 0.35997 -0.77236 133 124 111
0.01162 0.34125 -0.89789 127 122 109
0.01105 0.34051 -0.89812 137 129 113
0.01231 0.34064 -0.89760 101 99 91
0.01143 0.34071 -0.89661 130 124 107
0.01212 0.34010 -0.89633 101 100 90
-0.03145 0.33798 -0.89665 96 91 86
-0.03092 0.33867 -0.89643 107 95 93
-0.03082 0.33776 -0.89868 105 96 93
-0.03028 0.33845 -0.89846 113 100 95
-0.03023 0.33782 -0.89843 113 102 94
-0.03018 0.33718 -0.89841 113 100 94
-0.03377 0.33747 -0.89482 57 53 50
-0.03429 0.33679 -0.89503 52 49 51
-0.03318 0.33740 -0.89559 67 63 60
-0.03254 0.33683 -0.89533 76 75 69
-0.03200 0.33741 -0.89597 87 87 76
-0.03137 0.33684 -0.89571 96 90 82
-0.03141 0.33740 -0.89623 96 92 86
-0.03077 0.33683 -0.89597 107 94 91
-0.03076 0.33710 -0.89884 106 95 92
-0.03012 0.33653 -0.89857 113 100 94
-0.03372 0.33687 -0.89459 56 52 57
-0.03424 0.33620 -0.89480 53 46 52
-0.03314 0.33689 -0.89468 64 62 64
-0.03251 0.33632 -0.89441 79 76 77
-0.03196 0.33689 -0.89507 87 86 74
-0.03133 0.33632 -0.89481 97 89 80
-0.03366 0.33624 -0.89465 55 49 60
-0.03419 0.33556 -0.89487 54 46 50
-0.03304 0.33568 -0.89439 69 61 70
-0.03308 0.33625 -0.89478 66 61 71
-0.03361 0.33558 -0.89490 56 47 57
-0.03414 0.33490 -0.89511 53 44 46
-0.03356 0.33496 -0.89487 57 48 53
-0.03244 0.33558 -0.89533 83 76 75
-0.03186 0.33563 -0.89509 90 84 75
-0.03297 0.33495 -0.89510 70 61 63
-0.03234 0.33439 -0.89484 81 73 72
-0.03239 0.33495 -0.89533 82 74 69
-0.03180 0.33491 -0.89578 92 82 76
-0.03127 0.33560 -0.89556 98 88 81
-0.03121 0.33497 -0.89554 98 88 82
-0.03116 0.33434 -0.89551 97 89 83
-0.03351 0.33432 -0.89501 57 49 48
-0.03408 0.33426 -0.89524 51 46 41
-0.03292 0.33434 -0.89503 69 61 61
-0.03175 0.33432 -0.89550 91 81 78
-0.03404 0.33377 -0.89425 50 51 40
-0.03467 0.33434 -0.89451 51 46 41
-0.03462 0.33372 -0.89449 50 49 40
-0.03457 0.33310 -0.89446 50 51 46
-0.03399 0.33315 -0.89423 50 51 45
-0.03348 0.33395 -0.89315 54 53 45
-0.03289 0.33394 -0.89342 67 62 59
-0.03231 0.33394 -0.89353 81 76 73
-0.03173 0.33394 -0.89376 89 82 76
-0.03114 0.33392 -0.89403 96 90 82
-0.03061 0.33460 -0.89382 104 97 89
-0.03053 0.33381 -0.89500 102 98 84
-0.03000 0.33449 -0.89479 110 101 93
-0.02995 0.33387 -0.89476 108 101 86
-0.02990 0.33324 -0.89474 106 102 85
-0.03342 0.33331 -0.89332 53 54 49
-0.03395 0.33263 -0.89353 50 48 50
-0.03337 0.33269 -0.89329 54 50 53
-0.03280 0.33274 -0.89305 67 65 62
-0.03285 0.33336 -0.89312 66 65 60
-0.03222 0.33280 -0.89286 79 75 62
-0.03228 0.33352 -0.89215 81 78 66
-0.03166 0.33296 -0.89189 86 80 69
-0.03170 0.33350 -0.89248 88 82 72
-0.03108 0.33293 -0.89221 94 88 82
-0.03112 0.33350 -0.89258 95 89 83
-0.03052 0.33342 -0.89332 101 97 87
-0.02989 0.33285 -0.89306 105 102 89
0.05954 0.35868 -0.74268 162 149 134
0.05920 0.35898 -0.74282 158 144 126
0.05923 0.35865 -0.74281 159 146 128
0.05926 0.35832 -0.74279 160 146 133
0.05951 0.35901 -0.74269 162 147 137
0.05982 0.35904 -0.74257 167 155 142
0.05998 0.35870 -0.74268 169 158 143
0.06026 0.35906 -0.74257 183 171 158
0.06029 0.35873 -0.74256 185 172 159
0.06032 0.35839 -0.74254 185 172 157
-0.03051 0.33303 -0.89174 100 95 89
0.05937 0.35837 -0.74249 162 149 135
0.05909 0.35801 -0.74260 157 145 136
0.05980 0.35839 -0.74247 171 160 143
0.06013 0.35808 -0.74233 184 172 160
-0.03334 0.33228 -0.89182 55 47 51
-0.03391 0.33223 -0.89206 51 45 44
-0.03386 0.33161 -0.89203 52 45 42
-0.03277 0.33235 -0.89151 69 61 62
-0.03221 0.33255 -0.89029 78 72 67
-0.03165 0.33264 -0.88984 86 78 69
-0.03108 0.33272 -0.88950 95 86 80
-0.03051 0.33275 -0.88938 101 92 86
-0.02994 0.33277 -0.88942 108 99 88
-0.02942 0.33344 -0.88921 113 104 88
-0.02937 0.33283 -0.88919 112 101 90
-0.02932 0.33221 -0.88916 114 100 89
0.05891 0.35809 -0.74202 160 146 136
0.05863 0.35773 -0.74213 156 147 136
0.05894 0.35776 -0.74200 159 148 138
0.05925 0.35779 -0.74188 177 165 154
0.05951 0.35809 -0.74216 172 160 146
0.05985 0.35779 -0.74202 182 169 160
-0.03330 0.33188 -0.89039 56 49 52
-0.03382 0.33122 -0.89060 51 43 47
-0.03274 0.33199 -0.88982 68 61 66
-0.03220 0.33224 -0.88829 77 70 72
-0.03163 0.33233 -0.88788 87 77 72
-0.03107 0.33238 -0.88768 96 84 77
-0.03050 0.33236 -0.88792 104 91 83
-0.02992 0.33235 -0.88812 109 96 85
-0.02930 0.33180 -0.88786 116 101 86
-0.03325 0.33122 -0.89070 55 49 52
-0.03377 0.33055 -0.89091 50 44 47
-0.03263 0.33066 -0.89044 63 56 61
-0.03269 0.33135 -0.88999 67 60 66
-0.03207 0.33079 -0.88973 72 68 68
-0.03214 0.33159 -0.88858 75 69 71
-0.03152 0.33103 -0.88832 83 79 72
-0.03158 0.33170 -0.88795 87 78 73
-0.03097 0.33115 -0.88769 91 85 76
-0.02989 0.33188 -0.88720 110 96 86
-0.02928 0.33133 -0.88695 114 103 85
0.05940 0.35738 -0.74240 158 149 138
0.05910 0.35735 -0.74253 156 148 134
0.05943 0.35705 -0.74239 160 149 131
0.05975 0.35741 -0.74231 181 170 157
0.06001 0.35744 -0.74214 184 170 157
0.06029 0.35780 -0.74203 175 160 152
0.06032 0.35747 -0.74201 176 159 145
0.06035 0.35714 -0.74200 175 159 144
-0.03321 0.33078 -0.88958 54 48 52
-0.03373 0.33011 -0.88979 51 47 49
-0.03316 0.33017 -0.88956 52 49 51
0.05866 0.35701 -0.74249 155 142 125
0.05833 0.35731 -0.74263 151 139 125
0.05836 0.35698 -0.74262 152 137 119
0.05838 0.35665 -0.74261 152 139 125
0.05896 0.35704 -0.74236 158 145 127
0.05929 0.35674 -0.74222 163 151 133
0.06016 0.35703 -0.74265 184 171 154
0.06036 0.35707 -0.74243 183 169 154
0.06070 0.35677 -0.74229 174 160 149
-0.03263 0.33054 -0.88735 60 54 55
-0.03209 0.33080 -0.88586 72 67 65
-0.03154 0.33092 -0.88519 81 77 74
-0.03098 0.33098 -0.88496 88 84 82
-0.03093 0.33038 -0.88493 87 84 87
0.05913 0.35662 -0.74290 154 141 128
0.05885 0.35626 -0.74301 152 138 130
0.05916 0.35629 -0.74289 155 141 136
0.05940 0.35666 -0.74274 158 146 130
0.06071 0.35664 -0.74313 183 172 154
0.06074 0.35631 -0.74312 184 171 158
0.06112 0.35666 -0.74309 180 167 154
0.06145 0.35636 -0.74295 173 159 150
-0.03206 0.33041 -0.88452 73 66 68
-0.03151 0.33049 -0.88411 80 76 78
-0.03090 0.32995 -0.88386 89 82 85
0.06108 0.35620 -0.74385 168 156 143
0.06142 0.35589 -0.74371 183 170 158
-0.03202 0.32988 -0.88409 74 66 69
-0.03147 0.32997 -0.88361 82 76 77
-0.03087 0.32943 -0.88336 89 79 79
-0.03198 0.32940 -0.88332 73 64 67
-0.03144 0.32950 -0.88284 82 73 73
-0.03083 0.32896 -0.88259 90 79 75
-0.03194 0.32891 -0.88271 70 62 64
-0.03140 0.32899 -0.88234 82 72 69
-0.03080 0.32845 -0.88209 92 82 69
0.06194 0.35501 -0.74497 156 142 132
0.06159 0.35532 -0.74511 155 140 131
0.06162 0.35498 -0.74510 155 141 133
