ply
format ascii 1.0
element face 0
property list uchar int vertex_indices
element vertex 817
property float x
property float y
property float z
property uchar diffuse_red
property uchar diffuse_green
property uchar diffuse_blue
end_header
-0.04846 0.37530 -0.91423 177 164 163
-0.04936 0.37409 -0.91457 177 166 168
-0.04840 0.37422 -0.91406 177 166 167
-0.04741 0.37548 -0.91416 173 161 157
-0.04640 0.37564 -0.91388 168 160 152
-0.04798 0.37402 -0.91065 173 161 159
-0.04702 0.37415 -0.91014 169 160 152
-0.04833 0.37270 -0.90830 173 163 149
-0.04310 0.37321 -0.90294 88 84 79
-0.04217 0.37332 -0.90235 83 76 77
-0.04114 0.37350 -0.90223 77 72 72
-0.04014 0.37257 -0.90157 70 69 67
-0.04966 0.37125 -0.90630 174 168 153
-0.05055 0.37006 -0.90664 177 169 156
-0.04960 0.37019 -0.90614 176 167 154
-0.04861 0.37144 -0.90632 170 164 146
-0.04270 0.37233 -0.90443 89 82 77
-0.04154 0.37258 -0.90497 82 74 76
-0.04052 0.37165 -0.90431 74 70 72
-0.04045 0.37278 -0.90508 75 72 72
-0.03944 0.37185 -0.90442 71 70 70
-0.04354 0.37117 -0.90500 105 96 89
-0.04272 0.37123 -0.90390 87 81 81
0.01499 0.38120 -0.90179 168 170 160
-0.04233 0.37034 -0.90535 84 82 83
-0.04211 0.36936 -0.90598 85 82 76
-0.04051 0.36982 -0.90855 78 74 66
-0.04201 0.36831 -0.90598 86 81 74
-0.04033 0.36880 -0.90901 75 74 66
-0.03930 0.36786 -0.90834 68 65 66
-0.03888 0.36917 -0.91079 71 69 68
-0.03797 0.37039 -0.91044 70 65 72
-0.03791 0.36930 -0.91028 67 65 72
-0.03785 0.36822 -0.91011 66 64 65
0.01818 0.36127 -0.64804 145 138 126
0.01774 0.36067 -0.64821 149 140 129
0.01857 0.36126 -0.64697 122 113 101
0.01823 0.36113 -0.64589 123 111 98
0.01730 0.36081 -0.64352 135 125 108
0.01718 0.36073 -0.64269 146 134 117
0.01735 0.36073 -0.64216 156 143 126
0.01784 0.36028 -0.64184 160 148 130
0.01771 0.36077 -0.64181 161 147 131
0.01820 0.36031 -0.64149 163 151 131
-0.04195 0.36724 -0.90582 85 79 73
-0.04033 0.36770 -0.90855 74 71 67
0.01838 0.36078 -0.64813 144 136 126
0.01761 0.36031 -0.64300 148 135 117
0.01810 0.35986 -0.64268 158 147 124
-0.04202 0.36611 -0.90502 85 78 71
0.01009 0.35889 -0.64893 179 170 152
0.00966 0.35831 -0.64910 181 173 157
0.01076 0.35901 -0.64891 172 162 145
0.01773 0.36013 -0.64809 149 139 127
0.01723 0.36060 -0.64842 151 141 129
0.01726 0.36007 -0.64834 152 141 128
0.01729 0.35954 -0.64826 152 139 130
0.01846 0.36026 -0.64810 143 134 122
-0.04237 0.36486 -0.90286 85 77 75
0.01014 0.35837 -0.64887 177 170 153
0.00970 0.35779 -0.64903 180 172 155
0.01787 0.35963 -0.64812 148 138 126
0.01851 0.35973 -0.64804 142 133 119
-0.04478 0.36328 -0.90087 125 117 108
-0.04365 0.36349 -0.90128 104 98 93
0.01046 0.35792 -0.64912 175 169 153
0.01002 0.35733 -0.64928 181 169 156
0.01117 0.35804 -0.64913 165 161 144
0.01167 0.35758 -0.64880 159 152 138
0.01787 0.35914 -0.64875 149 140 125
0.01737 0.35960 -0.64909 154 142 129
0.01740 0.35907 -0.64900 153 142 129
0.01743 0.35854 -0.64892 151 143 128
0.01790 0.35860 -0.64867 148 140 122
0.01781 0.35908 -0.64794 146 136 119
0.01838 0.35916 -0.64779 141 131 114
-0.04461 0.36228 -0.90128 130 124 111
-0.04404 0.36224 -0.89894 108 102 92
-0.04314 0.36235 -0.89823 92 87 77
-0.04183 0.36264 -0.89951 81 75 69
0.01059 0.35742 -0.64914 177 167 151
0.01015 0.35683 -0.64930 179 168 156
0.01108 0.35696 -0.64881 165 156 142
0.01130 0.35754 -0.64916 166 159 143
0.01180 0.35708 -0.64884 159 151 140
0.01791 0.35856 -0.64793 145 136 116
0.01746 0.35797 -0.64810 148 142 124
0.01838 0.35863 -0.64769 139 129 111
-0.04441 0.36128 -0.90183 132 127 114
-0.04436 0.36103 -0.89693 110 104 91
-0.04342 0.36116 -0.89645 93 87 77
-0.04223 0.36139 -0.89715 81 76 71
-0.04106 0.36162 -0.89775 72 69 64
-0.04018 0.36280 -0.89742 69 67 67
-0.04012 0.36174 -0.89726 68 65 61
0.01758 0.35795 -0.64749 145 138 120
0.01714 0.35736 -0.64765 147 140 128
0.01761 0.35743 -0.64740 145 138 123
0.01797 0.35800 -0.64715 135 127 111
0.01712 0.35778 -0.64555 122 115 100
0.01762 0.35732 -0.64522 122 114 99
-0.04418 0.36057 -0.90780 151 147 140
-0.04399 0.36038 -0.90347 133 129 118
-0.04400 0.36011 -0.89825 110 105 93
-0.04340 0.36010 -0.89607 93 87 77
-0.04235 0.36027 -0.89614 80 76 74
-0.04129 0.36045 -0.89624 72 69 71
-0.04053 0.36050 -0.89490 68 63 65
-0.03966 0.36168 -0.89457 68 64 61
-0.03960 0.36063 -0.89441 66 63 60
-0.03954 0.35959 -0.89425 67 65 66
0.01742 0.35735 -0.64648 134 126 112
0.01698 0.35676 -0.64664 145 136 122
0.01669 0.35715 -0.64500 121 112 100
0.01719 0.35670 -0.64468 124 114 98
-0.04449 0.35960 -0.91115 162 157 142
-0.04539 0.35839 -0.91149 167 158 142
-0.04369 0.35967 -0.90980 154 149 133
-0.04359 0.35945 -0.90495 136 130 116
-0.04375 0.35914 -0.89901 113 107 96
-0.04333 0.35906 -0.89600 93 88 79
-0.04238 0.35919 -0.89558 81 75 72
-0.04144 0.35932 -0.89509 74 70 72
-0.04045 0.35840 -0.89444 69 67 70
-0.04070 0.35937 -0.89369 69 66 69
-0.03971 0.35846 -0.89304 67 64 67
0.01752 0.35684 -0.64646 133 122 110
0.01707 0.35624 -0.64663 145 133 119
0.01701 0.35669 -0.64522 121 110 99
0.01751 0.35623 -0.64489 125 114 95
-0.04386 0.35875 -0.91389 163 156 139
-0.04477 0.35753 -0.91423 168 157 147
-0.04299 0.35884 -0.91283 154 147 133
-0.04262 0.35874 -0.90931 137 130 120
-0.04310 0.35831 -0.90176 113 109 99
-0.04324 0.35802 -0.89596 93 92 83
-0.04250 0.35808 -0.89457 80 75 74
-0.04156 0.35821 -0.89408 74 69 73
-0.04057 0.35729 -0.89343 67 66 65
0.01776 0.35635 -0.64660 131 118 105
0.01732 0.35576 -0.64677 144 133 117
0.01826 0.35589 -0.64627 120 109 92
-0.04356 0.35775 -0.91493 164 154 144
-0.04447 0.35653 -0.91528 168 157 147
-0.04264 0.35786 -0.91412 156 148 137
-0.04216 0.35781 -0.91113 137 132 121
-0.04248 0.35746 -0.90435 112 111 100
0.00242 0.36274 -0.86157 99 100 87
0.00339 0.36185 -0.86093 96 96 81
0.00418 0.36311 -0.86349 106 102 83
0.00583 0.36344 -0.86502 110 99 84
0.00681 0.36253 -0.86438 97 92 83
0.00731 0.36372 -0.86609 108 100 84
0.00830 0.36281 -0.86544 97 91 84
0.01784 0.35584 -0.64657 129 117 101
0.01739 0.35524 -0.64673 141 131 115
0.01834 0.35537 -0.64624 120 111 96
-0.04345 0.35668 -0.91502 165 153 144
-0.04436 0.35545 -0.91536 167 158 145
-0.04247 0.35681 -0.91451 155 148 137
-0.04208 0.35673 -0.91107 137 133 121
0.00537 0.36226 -0.86342 97 93 80
0.00450 0.36111 -0.86375 97 93 90
0.00542 0.36123 -0.86327 97 90 83
0.00635 0.36136 -0.86278 103 90 82
-0.04320 0.35565 -0.91582 162 155 142
-0.04411 0.35443 -0.91617 167 160 146
-0.04222 0.35579 -0.91530 153 148 134
-0.04173 0.35575 -0.91237 137 133 119
0.01854 0.35491 -0.64707 123 115 99
0.01807 0.35484 -0.64731 138 129 108
0.01810 0.35431 -0.64723 136 126 106
-0.04282 0.35467 -0.91724 163 156 142
-0.04374 0.35344 -0.91759 169 158 148
-0.04191 0.35478 -0.91637 155 148 136
-0.04134 0.35477 -0.91383 138 132 119
-0.04032 0.35492 -0.91352 118 111 97
0.01853 0.35437 -0.64694 121 112 95
0.01808 0.35377 -0.64711 134 123 108
0.01903 0.35390 -0.64661 122 111 98
0.03254 0.36505 -0.91347 115 101 83
0.03155 0.36372 -0.91385 116 104 78
0.03261 0.36387 -0.91329 115 106 80
0.03475 0.36548 -0.91591 119 108 93
0.01863 0.35385 -0.64694 121 110 97
0.03492 0.36431 -0.91600 118 108 88
0.03392 0.36297 -0.91638 114 103 87
0.03499 0.36311 -0.91582 116 103 86
0.01800 0.35322 -0.64691 129 122 105
0.01750 0.35369 -0.64724 145 134 118
0.01753 0.35316 -0.64716 142 135 117
0.01756 0.35263 -0.64708 143 135 114
0.01851 0.35276 -0.64658 121 111 94
0.01897 0.35338 -0.64717 121 111 95
0.01806 0.35270 -0.64686 129 120 101
0.01761 0.35210 -0.64702 142 133 112
0.01856 0.35223 -0.64653 121 110 94
0.01895 0.35178 -0.64755 124 117 98
0.01847 0.35172 -0.64780 139 133 114
0.01946 0.35132 -0.64722 118 112 96
0.01896 0.35128 -0.64893 143 139 122
0.01845 0.35175 -0.64927 147 141 122
0.01848 0.35122 -0.64918 146 141 123
0.01851 0.35068 -0.64910 147 140 122
0.01893 0.35182 -0.64901 143 138 121
0.01925 0.35131 -0.64848 136 131 115
0.01923 0.35129 -0.64773 120 115 98
0.01974 0.35083 -0.64740 119 113 97
-0.03815 0.34759 -0.91551 101 96 92
-0.03767 0.34760 -0.91256 82 81 75
-0.03696 0.34767 -0.91078 72 69 65
-0.03593 0.34671 -0.91010 68 62 64
-0.03738 0.34665 -0.91868 101 98 96
-0.03713 0.34662 -0.91468 82 80 80
-0.03656 0.34666 -0.91223 73 68 70
0.02069 0.35049 -0.65125 147 139 119
0.02017 0.35097 -0.65159 148 142 123
0.02020 0.35043 -0.65150 150 142 121
0.02023 0.34988 -0.65142 150 141 120
0.02076 0.35049 -0.65057 143 136 115
-0.04055 0.34516 -0.92435 161 152 138
-0.04149 0.34390 -0.92470 164 156 143
-0.03955 0.34530 -0.92382 156 146 131
-0.03848 0.34545 -0.92361 144 138 121
-0.03734 0.34561 -0.92375 125 119 106
-0.03680 0.34565 -0.92098 105 100 93
-0.03651 0.34564 -0.91712 85 83 81
-0.03601 0.34567 -0.91433 71 70 70
-0.03496 0.34470 -0.91364 67 65 64
-0.03492 0.34582 -0.91430 66 64 64
-0.03399 0.34706 -0.91395 63 61 65
-0.03393 0.34596 -0.91378 63 63 63
-0.03387 0.34485 -0.91361 65 63 64
0.02082 0.34997 -0.65127 146 136 116
0.02037 0.34936 -0.65145 149 141 121
0.02103 0.34999 -0.65073 143 133 116
-0.03932 0.34421 -0.92448 156 146 130
-0.03819 0.34437 -0.92455 146 136 120
-0.03714 0.34452 -0.92424 129 118 104
-0.03664 0.34455 -0.92132 108 101 89
-0.03645 0.34453 -0.91696 86 85 77
-0.03581 0.34459 -0.91481 72 72 68
-0.03476 0.34362 -0.91412 68 62 67
0.01073 0.35115 -0.90811 103 103 101
0.02109 0.34946 -0.65144 146 137 118
0.02064 0.34885 -0.65161 150 142 122
0.02144 0.34950 -0.65103 142 132 116
-0.04006 0.34299 -0.92583 159 152 138
-0.03914 0.34311 -0.92490 155 148 130
-0.03802 0.34327 -0.92494 144 136 118
-0.03735 0.34334 -0.92274 128 119 104
-0.03692 0.34337 -0.91951 107 102 89
-0.03672 0.34336 -0.91521 86 85 75
0.00878 0.34970 -0.90547 126 123 109
0.00782 0.34842 -0.90583 136 127 111
0.02142 0.34896 -0.65166 145 138 121
0.02096 0.34834 -0.65183 148 141 121
0.02178 0.34901 -0.65127 141 132 117
-0.04137 0.34166 -0.92433 165 156 140
-0.04244 0.34264 -0.92503 166 158 146
-0.04238 0.34152 -0.92486 167 159 144
-0.04232 0.34040 -0.92469 167 158 141
-0.04131 0.34054 -0.92416 166 155 139
-0.04041 0.34179 -0.92361 161 151 133
-0.03956 0.34190 -0.92234 154 146 127
-0.03843 0.34206 -0.92246 145 137 121
-0.03786 0.34212 -0.91984 129 120 107
-0.03765 0.34212 -0.91555 109 102 92
-0.03748 0.34211 -0.91119 87 83 80
0.02123 0.34838 -0.65135 144 137 122
0.02077 0.34777 -0.65152 147 140 119
0.02148 0.34841 -0.65084 138 131 118
-0.04086 0.34059 -0.92090 162 150 137
-0.04179 0.33934 -0.92125 166 156 140
-0.04015 0.34067 -0.91892 154 146 132
-0.03902 0.34083 -0.91908 144 140 127
-0.03856 0.34088 -0.91599 128 123 112
-0.03850 0.34086 -0.91104 108 102 94
-0.03830 0.34087 -0.90691 88 82 81
-0.03753 0.34097 -0.90547 74 69 72
-0.03623 0.34115 -0.90647 65 62 64
-0.03520 0.34020 -0.90580 61 56 59
0.02090 0.34778 -0.65090 145 138 120
0.02045 0.34717 -0.65107 145 139 118
0.02112 0.34781 -0.65036 136 129 115
0.01324 0.34665 -0.63806 149 139 123
0.01376 0.34672 -0.63789 155 144 127
0.01421 0.34678 -0.63766 158 146 130
0.01424 0.34628 -0.63758 157 145 129
-0.04167 0.33934 -0.91634 162 151 137
-0.04260 0.33810 -0.91669 164 155 140
-0.04084 0.33945 -0.91508 154 146 132
-0.03994 0.33957 -0.91412 144 140 128
-0.03952 0.33961 -0.90575 107 102 92
-0.03916 0.33965 -0.90240 89 81 76
-0.03830 0.33976 -0.90145 74 65 65
-0.03706 0.33994 -0.90225 66 58 60
-0.03604 0.33899 -0.90159 62 59 61
0.02097 0.34724 -0.65085 144 137 118
0.02051 0.34663 -0.65102 144 139 120
0.02119 0.34727 -0.65032 134 126 108
0.01983 0.34708 -0.64818 118 110 94
0.02034 0.34661 -0.64784 119 111 96
-0.04262 0.33810 -0.91113 160 151 137
-0.04354 0.33688 -0.91148 163 156 143
-0.04173 0.33822 -0.91022 152 146 130
-0.04094 0.33833 -0.90882 143 139 122
-0.04046 0.33839 -0.90596 127 125 111
-0.04027 0.33842 -0.90175 105 104 95
-0.03968 0.33850 -0.89954 87 83 77
-0.03878 0.33862 -0.89878 74 68 63
-0.03767 0.33877 -0.89900 67 61 61
-0.03666 0.33783 -0.89834 63 59 61
0.02082 0.34667 -0.65058 142 137 122
0.02037 0.34606 -0.65075 144 140 120
0.02047 0.34663 -0.64947 131 124 109
0.01913 0.34644 -0.64735 116 110 95
0.01547 0.34594 -0.64148 133 124 106
0.01532 0.34592 -0.64062 144 134 116
0.01581 0.34547 -0.64030 150 141 121
0.01473 0.34584 -0.63934 150 140 119
0.01522 0.34539 -0.63902 153 145 123
-0.04155 0.33716 -0.90539 144 138 121
-0.04107 0.33723 -0.90258 127 122 106
-0.04074 0.33728 -0.89911 106 103 91
0.02079 0.34612 -0.65044 141 138 122
0.02034 0.34551 -0.65061 145 140 121
0.02029 0.34606 -0.64917 127 125 110
0.02080 0.34558 -0.64883 115 111 97
0.01913 0.34590 -0.64724 115 110 96
0.01584 0.34547 -0.64174 132 126 109
-0.04146 0.33611 -0.90027 127 116 108
-0.04074 0.33621 -0.89864 107 100 93
-0.04013 0.33633 -0.89172 75 71 71
-0.03919 0.33645 -0.89123 65 62 64
-0.03819 0.33553 -0.89058 62 57 57
0.02056 0.34554 -0.65008 140 136 121
0.02010 0.34493 -0.65025 146 137 122
0.01982 0.34545 -0.64857 124 122 109
0.02033 0.34498 -0.64824 116 108 95
0.01612 0.34499 -0.64192 134 127 109
0.01591 0.34496 -0.64100 145 135 114
0.01535 0.34489 -0.63974 151 141 117
0.01581 0.34496 -0.63950 154 145 122
-0.04102 0.33508 -0.90193 127 119 110
-0.04048 0.33517 -0.89945 110 103 96
-0.04066 0.33522 -0.88882 76 71 66
-0.03973 0.33535 -0.88834 66 61 59
-0.03874 0.33443 -0.88769 63 57 51
0.02082 0.34503 -0.65024 141 132 119
0.01650 0.34451 -0.64218 137 128 106
0.01642 0.34451 -0.64140 145 136 112
0.01581 0.34444 -0.64009 151 141 116
0.01604 0.34447 -0.63963 155 144 123
0.01647 0.34504 -0.63946 155 147 129
0.01650 0.34453 -0.63939 157 147 130
0.01653 0.34402 -0.63931 157 148 132
-0.03966 0.33417 -0.90288 112 106 99
0.01965 0.34433 -0.64967 144 135 125
0.01913 0.34481 -0.65000 148 139 121
0.01916 0.34427 -0.64992 147 138 126
0.01919 0.34373 -0.64984 145 138 126
0.02050 0.34444 -0.64979 138 129 117
0.01904 0.34427 -0.64755 121 113 97
0.01955 0.34380 -0.64722 118 111 96
0.01621 0.34396 -0.64179 138 130 109
0.01631 0.34397 -0.64119 146 139 119
0.01680 0.34352 -0.64086 151 144 129
0.01602 0.34395 -0.64020 150 143 125
0.01651 0.34350 -0.63988 154 147 132
0.01588 0.34394 -0.63936 154 146 129
0.01637 0.34349 -0.63904 157 148 132
-0.03867 0.33317 -0.90706 111 108 94
0.01934 0.34375 -0.64923 143 136 126
0.02027 0.34387 -0.64945 136 127 117
0.01598 0.34340 -0.64216 131 124 110
0.01608 0.34343 -0.64084 147 140 126
-0.00495 0.34109 -0.60712 140 131 114
-0.00534 0.34145 -0.60737 139 129 109
-0.00531 0.34104 -0.60731 138 131 112
-0.00529 0.34063 -0.60725 138 131 113
-0.00493 0.34068 -0.60706 141 131 112
-0.03759 0.33215 -0.91173 112 111 91
0.01885 0.34314 -0.64937 145 139 122
0.01834 0.34362 -0.64971 149 140 125
0.01837 0.34308 -0.64963 147 142 128
0.01840 0.34254 -0.64954 148 140 126
0.01979 0.34326 -0.64959 143 136 116
0.02010 0.34331 -0.64915 134 127 109
0.01575 0.34285 -0.64182 130 126 112
0.01609 0.34291 -0.64074 148 138 125
0.01658 0.34246 -0.64042 152 142 124
0.01623 0.34294 -0.64018 151 142 128
0.01669 0.34300 -0.63994 154 145 132
0.01672 0.34248 -0.63986 154 145 129
-0.03896 0.33072 -0.92050 150 146 136
-0.03990 0.32946 -0.92085 155 147 136
-0.03797 0.33085 -0.91995 142 141 127
-0.03721 0.33098 -0.91825 131 130 112
0.01974 0.34270 -0.65018 146 137 120
0.01928 0.34209 -0.65035 145 137 120
0.01977 0.34216 -0.65009 145 136 118
0.02047 0.34279 -0.65017 143 133 109
0.02049 0.34281 -0.64944 132 123 103
0.01604 0.34236 -0.64200 129 127 109
0.01624 0.34241 -0.64079 148 139 120
0.01673 0.34196 -0.64047 152 143 127
-0.03904 0.32959 -0.91964 151 143 132
-0.03998 0.32834 -0.91999 155 150 134
-0.03800 0.32973 -0.91929 145 138 128
-0.03733 0.32986 -0.91723 131 127 115
0.01939 0.34213 -0.64895 143 134 114
0.01894 0.34152 -0.64912 144 138 116
0.01654 0.34189 -0.64240 132 127 108
0.01665 0.34193 -0.64109 150 140 124
0.01714 0.34148 -0.64077 153 144 129
-0.03938 0.32847 -0.91751 151 144 135
-0.04031 0.32722 -0.91786 156 149 130
-0.03836 0.32860 -0.91712 144 136 132
-0.03755 0.32874 -0.91569 132 126 118
0.01878 0.34152 -0.64821 141 135 116
0.01833 0.34092 -0.64838 141 135 116
0.01657 0.34137 -0.64231 136 129 111
0.01647 0.34138 -0.64150 143 133 117
0.01696 0.34092 -0.64118 149 140 121
-0.03956 0.32736 -0.91618 151 144 130
-0.04049 0.32611 -0.91653 156 150 132
-0.03856 0.32749 -0.91567 144 137 126
-0.03782 0.32762 -0.91399 133 126 116
0.01784 0.34067 -0.65640 156 147 128
0.01738 0.34005 -0.65658 159 151 131
0.01837 0.34018 -0.65606 151 143 126
0.01847 0.34095 -0.64778 139 132 113
0.01830 0.34095 -0.64686 122 114 99
0.01881 0.34049 -0.64653 118 112 97
-0.03982 0.32625 -0.91441 150 145 127
-0.04075 0.32501 -0.91476 155 150 132
-0.03889 0.32638 -0.91363 143 138 123
-0.03807 0.32652 -0.91231 131 127 117
0.01405 0.33984 -0.64905 142 139 126
0.01354 0.34031 -0.64938 153 147 133
0.01357 0.33977 -0.64930 150 148 131
0.01408 0.33930 -0.64897 143 137 125
0.01450 0.34044 -0.64888 145 139 127
0.01453 0.33990 -0.64880 146 140 124
0.01800 0.34035 -0.64792 143 135 121
0.01749 0.34082 -0.64825 146 137 120
0.01752 0.34028 -0.64817 147 138 124
0.01791 0.34036 -0.64708 138 131 114
0.01710 0.34038 -0.64263 138 131 110
0.01760 0.33992 -0.64231 146 136 113
-0.04005 0.32515 -0.91285 150 144 128
-0.04097 0.32392 -0.91319 157 147 134
-0.03910 0.32529 -0.91218 144 137 124
-0.03827 0.32542 -0.91091 130 127 119
-0.03722 0.32556 -0.91071 111 111 105
-0.03618 0.32569 -0.91046 93 92 85
-0.03455 0.32582 -0.91291 75 73 69
-0.03305 0.32595 -0.91468 61 60 56
-0.03205 0.32608 -0.91416 53 54 46
-0.03099 0.32511 -0.91346 52 52 45
0.01697 0.33974 -0.64601 137 130 111
0.01709 0.33977 -0.64540 119 111 93
0.01671 0.33980 -0.64284 129 120 102
0.01702 0.33985 -0.64244 140 130 110
0.01752 0.33939 -0.64212 145 137 119
-0.04002 0.32405 -0.91250 151 144 132
-0.04095 0.32282 -0.91285 155 147 134
-0.03898 0.32419 -0.91227 144 138 126
-0.03791 0.32432 -0.91216 131 127 116
-0.03689 0.32445 -0.91179 113 111 99
-0.03584 0.32458 -0.91160 93 93 81
-0.03449 0.32471 -0.91273 73 74 68
-0.03303 0.32484 -0.91433 60 61 59
-0.03203 0.32497 -0.91381 55 55 50
-0.03097 0.32399 -0.91311 54 51 50
0.01665 0.33918 -0.64557 137 128 106
0.01721 0.33925 -0.64541 116 110 90
0.01692 0.33925 -0.64439 118 115 94
0.01742 0.33879 -0.64406 123 120 104
0.01679 0.33926 -0.64353 121 119 99
0.01728 0.33880 -0.64320 130 127 112
0.01634 0.33924 -0.64236 129 124 107
0.01684 0.33878 -0.64204 140 135 120
0.01653 0.33928 -0.64184 138 132 116
0.01702 0.33882 -0.64152 146 139 121
-0.04012 0.32296 -0.91157 152 143 131
-0.04104 0.32173 -0.91191 152 147 132
-0.03902 0.32309 -0.91164 146 136 126
-0.03781 0.32321 -0.91219 133 125 114
-0.03689 0.32335 -0.91133 115 109 97
-0.03579 0.32348 -0.91134 94 92 79
-0.03465 0.32361 -0.91156 74 75 66
-0.03336 0.32374 -0.91237 61 62 59
-0.03237 0.32387 -0.91185 57 54 54
-0.03132 0.32290 -0.91116 55 49 52
0.08503 0.33984 -0.85107 132 132 113
0.08597 0.34108 -0.85072 130 129 113
0.08603 0.33997 -0.85055 132 130 111
0.01661 0.33864 -0.64541 132 126 107
0.01711 0.33818 -0.64508 113 111 94
0.01691 0.33869 -0.64500 114 111 93
-0.04048 0.32189 -0.90936 149 141 129
-0.04140 0.32066 -0.90970 152 146 132
-0.03936 0.32201 -0.90955 145 134 123
-0.03789 0.32212 -0.91132 134 123 111
-0.03665 0.32224 -0.91201 116 109 94
-0.03567 0.32238 -0.91145 94 91 79
-0.03385 0.32265 -0.90973 62 62 61
0.08414 0.33867 -0.84931 134 134 119
0.08322 0.33743 -0.84966 135 137 122
0.08421 0.33757 -0.84914 132 135 119
0.08520 0.33770 -0.84862 131 133 119
0.01598 0.33804 -0.64539 140 133 119
0.01590 0.33806 -0.64458 126 121 105
0.01640 0.33759 -0.64425 114 110 93
-0.03805 0.32103 -0.91014 131 123 109
-0.03688 0.32116 -0.91048 115 108 93
-0.03607 0.32130 -0.90919 95 92 79
0.01643 0.33748 -0.64722 144 138 124
0.01592 0.33795 -0.64756 147 144 125
0.01598 0.33689 -0.64739 145 142 121
0.01640 0.33802 -0.64730 144 140 128
0.01646 0.33695 -0.64714 145 139 120
0.01587 0.33747 -0.64591 141 134 123
0.01547 0.33747 -0.64476 137 130 119
0.01547 0.33749 -0.64403 123 117 105
0.01596 0.33703 -0.64370 115 109 91
-0.03138 0.32182 -0.88262 101 93 79
-0.03006 0.32192 -0.88373 109 101 84
-0.02906 0.32101 -0.88308 112 105 88
0.01512 0.33694 -0.64356 121 114 98
0.01561 0.33648 -0.64323 116 109 95
-0.03587 0.31680 -0.88868 49 48 49
-0.00880 0.32052 -0.87378 115 108 92
-0.00980 0.32144 -0.87443 117 111 95
-0.00968 0.31935 -0.87411 107 102 90
-0.00886 0.32157 -0.87394 118 112 95
-0.00875 0.31947 -0.87362 108 103 90
-0.00781 0.31960 -0.87313 106 103 87
-0.00322 0.33460 -0.60836 142 135 122
-0.00361 0.33496 -0.60862 136 127 113
-0.00359 0.33455 -0.60856 136 127 115
-0.00357 0.33413 -0.60849 136 128 112
-0.03530 0.31569 -0.89074 45 45 43
-0.03430 0.31476 -0.89008 38 37 41
-0.00338 0.33417 -0.60814 144 136 124
-0.00372 0.33371 -0.60827 139 128 113
-0.00335 0.33376 -0.60807 147 135 126
-0.03466 0.31455 -0.89312 42 41 42
-0.03365 0.31362 -0.89246 37 35 38
-0.03460 0.31322 -0.89765 45 44 44
-0.03357 0.31227 -0.89698 38 36 36
-0.03403 0.31341 -0.89542 39 38 38
-0.03302 0.31247 -0.89475 39 35 36
0.01440 0.33333 -0.64064 126 120 98
0.01484 0.33390 -0.64048 135 125 104
0.01489 0.33287 -0.64032 134 130 111
-0.03401 0.31206 -0.89979 41 40 42
0.02205 0.33253 -0.65835 150 143 131
0.02151 0.33303 -0.65870 152 145 124
0.02154 0.33246 -0.65862 151 145 129
0.02157 0.33189 -0.65853 149 146 131
-0.03276 0.31107 -0.90010 39 37 37
-0.03179 0.31120 -0.89959 40 37 34
0.02198 0.33196 -0.65815 147 144 129
0.02150 0.33132 -0.65833 148 147 129
0.02252 0.33146 -0.65780 136 137 115
0.02273 0.33204 -0.65814 138 136 117
0.02327 0.33154 -0.65779 142 140 118
0.01526 0.33210 -0.64490 139 134 119
0.01476 0.33256 -0.64523 142 137 114
0.01479 0.33203 -0.64515 141 136 122
0.01482 0.33151 -0.64507 139 136 120
-0.00290 0.33257 -0.60770 131 120 110
-0.00250 0.33220 -0.60744 117 107 99
-0.03204 0.30987 -0.90278 44 42 41
0.02232 0.33140 -0.65840 145 145 127
0.02184 0.33076 -0.65858 147 146 129
0.02286 0.33090 -0.65804 138 139 113
0.01672 0.33162 -0.64629 138 135 114
0.01627 0.33102 -0.64646 141 135 120
-0.02827 0.30351 -0.96708 136 129 117
0.01861 0.33060 -0.64801 138 130 113
0.01816 0.33000 -0.64818 140 135 117
0.01931 0.33068 -0.64798 127 119 100
0.01983 0.33020 -0.64765 114 105 88
-0.02893 0.30200 -0.96937 137 131 122
-0.02757 0.30209 -0.96993 132 125 114
0.01823 0.33006 -0.64750 137 131 113
0.01778 0.32945 -0.64767 140 133 114
-0.02845 0.30064 -0.97115 133 127 112
-0.02676 0.30064 -0.97330 125 120 105
0.03030 0.32886 -0.67169 151 146 125
0.02978 0.32817 -0.67189 152 148 131
0.03033 0.32824 -0.67160 150 145 124
0.03088 0.32832 -0.67131 147 143 118
0.01818 0.32957 -0.64659 117 111 90
0.01869 0.32910 -0.64626 115 110 89
-0.02783 0.29922 -0.97364 127 118 102
-0.02601 0.29918 -0.97633 117 108 95
0.01709 0.32896 -0.64611 136 131 106
0.01664 0.32836 -0.64628 139 134 110
0.01770 0.32903 -0.64599 114 110 89
0.01820 0.32856 -0.64566 115 110 93
-0.02730 0.29781 -0.97569 118 110 95
-0.02572 0.29784 -0.97722 108 100 88
0.01657 0.32842 -0.64547 135 130 108
0.01710 0.32849 -0.64527 113 108 92
0.01639 0.32865 -0.64237 128 121 101
0.01689 0.32819 -0.64205 135 129 105
-0.02713 0.29651 -0.97599 107 102 82
-0.02578 0.29660 -0.97640 98 93 76
-0.02456 0.29547 -0.97560 91 83 68
-0.02438 0.29668 -0.97698 93 86 74
-0.02316 0.29555 -0.97618 90 83 72
0.01627 0.32783 -0.64578 138 133 111
0.01577 0.32829 -0.64612 141 137 111
0.01579 0.32776 -0.64603 139 135 115
0.01582 0.32723 -0.64595 138 134 115
0.01619 0.32789 -0.64497 131 126 104
0.01652 0.32795 -0.64457 114 106 87
0.01681 0.32801 -0.64413 117 111 93
0.01628 0.32807 -0.64287 122 114 96
0.01592 0.32812 -0.64179 129 122 104
0.01641 0.32766 -0.64146 136 128 107
-0.00289 0.32916 -0.60808 142 132 113
-0.02608 0.29544 -0.97440 93 84 67
-0.02487 0.29432 -0.97361 91 80 65
0.01639 0.32729 -0.64579 137 131 108
0.01594 0.32670 -0.64596 139 134 110
0.01649 0.32736 -0.64516 128 122 100
0.01700 0.32689 -0.64483 112 107 89
0.01683 0.32742 -0.64477 114 106 87
0.01712 0.32748 -0.64433 119 111 96
0.01660 0.32754 -0.64308 123 115 100
0.01710 0.32708 -0.64275 133 121 106
0.01581 0.32760 -0.64157 130 121 106
0.01631 0.32714 -0.64125 138 129 110
0.01753 0.32696 -0.64464 118 113 97
0.01693 0.32702 -0.64331 124 114 100
0.01743 0.32656 -0.64298 133 124 109
-0.00257 0.32838 -0.60767 123 115 97
-0.00217 0.32801 -0.60741 118 110 96
0.01717 0.32649 -0.64344 122 116 100
0.01767 0.32603 -0.64311 132 126 109
0.01772 0.32596 -0.64388 121 117 99
0.01822 0.32549 -0.64355 132 128 107
-0.00370 0.32739 -0.60808 138 129 110
-0.00407 0.32734 -0.60827 134 125 107
-0.00405 0.32693 -0.60821 133 124 107
-0.00333 0.32745 -0.60788 145 136 120
0.13245 0.31710 -0.83575 113 113 92
0.01830 0.32543 -0.64435 122 120 98
-0.00337 0.32698 -0.60829 140 130 113
-0.00372 0.32651 -0.60842 134 124 106
0.13283 0.31595 -0.83599 113 108 91
0.13188 0.31466 -0.83635 114 106 89
0.13290 0.31480 -0.83582 112 106 90
0.01880 0.32489 -0.64474 123 122 99
-0.00343 0.32656 -0.60815 142 132 115
-0.00378 0.32610 -0.60828 135 124 105
-0.00316 0.32661 -0.60786 143 132 116
-0.00277 0.32625 -0.60760 123 115 104
0.01899 0.32435 -0.64482 123 123 98
0.01935 0.32442 -0.64445 133 131 112
0.01985 0.32395 -0.64412 141 134 114
-0.00355 0.32620 -0.60743 140 131 116
-0.00316 0.32584 -0.60717 121 113 99
0.02012 0.32357 -0.64807 112 105 85
0.01991 0.32380 -0.64563 128 121 102
0.02011 0.32387 -0.64510 136 132 113
0.02062 0.32340 -0.64477 142 134 113
0.01895 0.32290 -0.64827 137 132 108
0.01850 0.32229 -0.64845 139 132 110
0.02012 0.32294 -0.64871 124 120 95
0.02049 0.32301 -0.64833 111 104 80
0.02030 0.32333 -0.64518 138 130 111
0.02081 0.32286 -0.64484 141 135 115
0.01942 0.32234 -0.64863 137 134 110
0.01896 0.32173 -0.64881 138 131 110
0.02057 0.32239 -0.64906 121 120 98
0.02109 0.32191 -0.64872 112 105 84
0.02015 0.32177 -0.64927 136 132 110
0.01969 0.32116 -0.64944 137 133 109
0.02099 0.32183 -0.64937 117 115 94
0.02151 0.32134 -0.64903 113 107 88
0.01955 0.32228 -0.64421 137 131 109
0.02006 0.32181 -0.64388 141 135 107
0.02090 0.32120 -0.64992 133 129 107
0.02043 0.32058 -0.65010 138 133 107
0.02171 0.32125 -0.64999 114 111 89
0.02223 0.32077 -0.64964 113 108 90
0.01930 0.32176 -0.64385 138 131 110
0.01981 0.32129 -0.64352 142 133 109
0.02261 0.31984 -0.65300 137 133 112
0.02208 0.32033 -0.65335 140 136 113
0.02211 0.31977 -0.65327 139 137 118
0.02258 0.32040 -0.65309 138 134 109
0.02299 0.31991 -0.65261 137 130 108
0.02236 0.32003 -0.65119 135 125 105
0.02281 0.31918 -0.65387 139 136 123
0.02227 0.31967 -0.65422 140 138 122
0.02231 0.31911 -0.65414 139 138 127
0.02234 0.31855 -0.65405 139 136 124
0.02334 0.31868 -0.65352 135 131 112
0.02219 0.31912 -0.64926 117 109 91
0.02172 0.31860 -0.64866 116 108 91
0.02185 0.31887 -0.64655 134 127 108
0.02236 0.31839 -0.64621 137 131 110
0.02017 0.31786 -0.64924 135 128 111
0.01971 0.31724 -0.64942 133 131 112
0.02046 0.31793 -0.64879 119 113 97
0.02098 0.31745 -0.64844 111 105 87
0.02176 0.31833 -0.64635 134 128 106
0.02228 0.31786 -0.64601 138 132 110
0.02104 0.31755 -0.64775 117 111 86
0.02128 0.31763 -0.64725 123 117 91
0.02184 0.31769 -0.64706 129 125 102
0.02236 0.31721 -0.64672 135 130 109
0.02210 0.31777 -0.64658 135 131 107
0.02262 0.31729 -0.64624 139 133 112
0.02157 0.31717 -0.64668 130 126 107
0.02209 0.31669 -0.64634 134 131 112
0.02105 0.31666 -0.64604 129 128 111
0.02157 0.31618 -0.64571 133 131 114
-0.00077 0.32012 -0.60975 137 126 118
-0.00112 0.31964 -0.60989 145 135 119
0.02074 0.31614 -0.64562 129 127 113
0.02125 0.31567 -0.64528 135 127 112
-0.00073 0.31969 -0.60970 134 121 114
-0.00109 0.31922 -0.60983 144 134 121
-0.00033 0.31932 -0.60943 122 111 104
0.02476 0.31465 -0.65415 134 127 114
0.02429 0.31401 -0.65433 135 131 111
0.02565 0.31469 -0.65427 123 116 103
0.02085 0.31559 -0.64562 132 123 111
0.02137 0.31512 -0.64528 136 127 111
0.02458 0.31410 -0.65384 133 127 111
0.02411 0.31346 -0.65402 135 131 108
0.02404 0.31358 -0.65317 132 129 109
0.02357 0.31295 -0.65335 134 131 108
0.02169 0.31445 -0.64623 131 126 109
0.02221 0.31397 -0.64589 136 131 113
0.02218 0.31451 -0.64597 136 130 111
0.02264 0.31512 -0.64580 138 131 113
0.02270 0.31404 -0.64563 137 135 118
0.02207 0.31387 -0.64649 132 126 110
0.02259 0.31339 -0.64615 136 130 112
0.02221 0.31332 -0.64652 135 126 109
0.02273 0.31284 -0.64618 135 128 110
-0.00349 0.31512 -0.60739 131 125 108
-0.00389 0.31549 -0.60765 141 133 116
-0.00387 0.31507 -0.60758 139 134 116
-0.00384 0.31465 -0.60752 140 134 119
-0.00352 0.31554 -0.60745 136 128 112
-0.00314 0.31559 -0.60726 121 110 101
0.03214 0.30682 -0.66105 126 122 107
0.03164 0.30616 -0.66124 131 127 115
0.03270 0.30630 -0.66068 105 102 86
0.03171 0.30702 -0.65980 108 102 86
0.03228 0.30650 -0.65943 111 105 92
-0.00416 0.31436 -0.60664 125 119 105
-0.00376 0.31399 -0.60638 120 110 97
0.03230 0.30621 -0.66109 125 123 108
0.03287 0.30569 -0.66072 105 103 87
-0.00393 0.31365 -0.60833 127 119 104
-0.00429 0.31318 -0.60847 127 120 102
-0.00353 0.31328 -0.60807 139 134 112
-0.00355 0.31388 -0.60709 125 117 98
-0.00315 0.31351 -0.60683 120 108 98
0.03283 0.30540 -0.66234 130 126 111
0.03226 0.30593 -0.66271 134 129 114
0.03229 0.30533 -0.66262 132 129 111
0.03233 0.30473 -0.66253 130 128 106
0.03240 0.30561 -0.66107 123 120 106
0.03297 0.30508 -0.66070 107 102 86
0.03341 0.30473 -0.66281 131 126 107
0.03291 0.30405 -0.66300 129 129 106
0.03294 0.30494 -0.66150 120 116 101
0.03351 0.30442 -0.66112 106 102 84
0.03403 0.30404 -0.66331 129 128 109
0.03352 0.30337 -0.66351 129 129 109
0.03363 0.30425 -0.66207 115 114 97
0.03420 0.30372 -0.66169 105 104 88
0.03442 0.30339 -0.66359 129 128 112
0.03391 0.30271 -0.66378 131 127 111
0.03452 0.30353 -0.66285 110 109 94
0.03509 0.30300 -0.66247 106 105 87
0.03543 0.30263 -0.66449 129 125 109
0.03492 0.30195 -0.66468 130 126 111
0.03546 0.30203 -0.66440 125 122 106
0.03601 0.30210 -0.66411 105 103 86
-0.00283 0.31058 -0.60871 138 132 114
-0.00324 0.31095 -0.60898 127 120 101
-0.00319 0.31011 -0.60885 128 121 104
-0.00286 0.31101 -0.60878 135 129 112
-0.00281 0.31016 -0.60865 139 133 115
-0.00248 0.31106 -0.60858 137 131 119
-0.00384 0.30621 -0.60857 124 114 102
-0.00424 0.30658 -0.60883 126 117 99
-0.00421 0.30616 -0.60877 124 118 99
-0.00419 0.30574 -0.60870 122 116 93
0.00163 0.29321 -0.61215 128 116 100
0.00165 0.29276 -0.61208 125 114 100
0.00205 0.29282 -0.61187 113 102 87
-0.02103 0.23678 -0.68222 136 131 120
-0.02160 0.23730 -0.68259 134 125 112
-0.02106 0.23737 -0.68231 134 126 111
-0.02100 0.23618 -0.68213 142 136 125
-0.02050 0.23685 -0.68194 139 132 121
-0.02046 0.23625 -0.68185 141 135 121
-0.02117 0.23579 -0.68304 140 133 123
-0.02174 0.23632 -0.68341 131 121 117
-0.02171 0.23572 -0.68332 134 126 119
-0.02168 0.23512 -0.68323 135 124 122
-0.02060 0.23527 -0.68267 145 136 132
