ply
format ascii 1.0
element face 0
property list uchar int vertex_indices
element vertex 712
property float x
property float y
property float z
property uchar diffuse_red
property uchar diffuse_green
property uchar diffuse_blue
end_header
0.01331 0.38125 -0.65814 218 209 198
0.01292 0.38160 -0.65834 220 212 202
0.01295 0.38121 -0.65830 220 211 200
0.01299 0.38082 -0.65826 219 210 195
0.01334 0.38087 -0.65809 218 208 191
0.01366 0.38130 -0.65797 216 206 194
0.01405 0.38096 -0.65777 211 199 190
0.04144 0.39638 -0.72090 225 219 206
0.04201 0.39587 -0.72060 223 219 208
0.04184 0.39594 -0.72128 225 219 210
0.04241 0.39544 -0.72098 222 218 211
0.01551 0.37840 -0.65968 208 196 182
0.01590 0.37806 -0.65947 204 193 178
0.01632 0.37827 -0.66042 207 197 184
0.01672 0.37792 -0.66021 204 193 178
0.03663 0.38864 -0.72148 174 164 149
0.03615 0.38800 -0.72166 175 169 154
0.00803 0.37366 -0.64585 194 183 170
0.00768 0.37397 -0.64603 202 190 175
0.00771 0.37362 -0.64599 200 188 175
0.00774 0.37327 -0.64596 199 186 177
0.00800 0.37401 -0.64588 196 186 170
0.00832 0.37405 -0.64573 180 170 156
0.00855 0.37376 -0.64588 176 166 154
0.00884 0.37416 -0.64577 166 154 143
0.00947 0.37399 -0.64629 163 150 139
0.00976 0.37439 -0.64618 165 149 141
0.00979 0.37403 -0.64614 166 148 136
0.00982 0.37368 -0.64610 165 150 136
0.03782 0.38847 -0.72293 171 163 149
0.03734 0.38783 -0.72311 172 166 152
0.00802 0.37330 -0.64578 191 180 172
0.00773 0.37291 -0.64589 198 185 175
0.00813 0.37328 -0.64543 172 161 151
0.00816 0.37293 -0.64539 170 157 148
0.00851 0.37262 -0.64521 165 154 140
0.04102 0.38850 -0.72783 172 165 158
0.04043 0.38902 -0.72814 171 165 153
0.04048 0.38843 -0.72808 171 165 157
0.04053 0.38784 -0.72801 170 164 157
0.00790 0.37147 -0.64534 179 166 153
0.00863 0.37162 -0.64557 166 155 138
0.00898 0.37131 -0.64538 162 151 133
0.00770 0.37110 -0.64554 188 177 161
0.00735 0.37141 -0.64572 194 181 169
0.00738 0.37106 -0.64568 192 182 165
0.00741 0.37071 -0.64565 191 184 165
0.00785 0.37109 -0.64523 175 162 148
0.00875 0.37130 -0.64563 165 152 136
0.00911 0.37099 -0.64544 163 151 141
0.00754 0.37070 -0.64532 184 176 158
0.00794 0.37076 -0.64525 171 161 147
0.00829 0.37045 -0.64506 162 154 143
0.00895 0.37099 -0.64574 164 153 141
0.00930 0.37068 -0.64555 162 152 146
0.01162 0.37159 -0.64685 159 145 140
0.01126 0.37191 -0.64704 163 153 138
0.01129 0.37155 -0.64700 162 150 141
0.01191 0.37200 -0.64673 152 139 140
0.01194 0.37164 -0.64670 150 135 136
0.01197 0.37128 -0.64666 151 137 134
0.03996 0.38442 -0.72474 145 136 133
0.04049 0.38449 -0.72448 127 121 122
0.04132 0.38466 -0.72462 147 143 137
0.00715 0.37023 -0.64490 184 175 152
0.00686 0.36984 -0.64501 193 180 167
0.00718 0.36988 -0.64486 181 170 156
0.00750 0.36992 -0.64471 168 157 145
0.00780 0.37036 -0.64505 169 160 143
0.00814 0.37005 -0.64487 163 152 141
0.04182 0.38430 -0.72607 126 117 116
0.04258 0.38445 -0.72612 150 142 136
0.04285 0.38443 -0.72552 173 168 153
0.04367 0.38459 -0.72563 180 175 157
0.04459 0.38478 -0.72587 189 184 167
0.04510 0.38432 -0.72638 192 185 173
0.00542 0.36910 -0.64360 191 179 165
0.00508 0.36940 -0.64378 191 178 167
0.00511 0.36905 -0.64374 192 180 166
0.00514 0.36871 -0.64370 193 181 167
0.00633 0.36930 -0.64400 178 165 151
0.00771 0.36962 -0.64484 167 152 140
0.00803 0.36967 -0.64470 164 149 137
0.00805 0.36932 -0.64466 164 152 143
0.04593 0.38396 -0.72731 193 188 178
0.00525 0.36870 -0.64337 190 179 163
0.00497 0.36832 -0.64348 191 183 168
0.00641 0.36897 -0.64402 174 164 149
0.00739 0.36918 -0.64448 165 154 142
0.00773 0.36888 -0.64430 162 149 140
0.00515 0.36832 -0.64322 187 177 158
0.00487 0.36794 -0.64332 194 182 169
0.00615 0.36854 -0.64371 173 162 147
0.00738 0.36882 -0.64441 163 151 141
0.00773 0.36852 -0.64423 161 149 134
0.00269 0.36749 -0.64258 196 183 171
0.00241 0.36711 -0.64268 197 185 170
0.00303 0.36720 -0.64240 186 173 161
0.00291 0.36751 -0.64235 187 174 165
0.00325 0.36721 -0.64217 189 177 162
0.00623 0.36821 -0.64372 170 157 143
0.00769 0.36855 -0.64464 162 148 134
0.00804 0.36824 -0.64445 159 150 132
0.00651 0.36793 -0.64391 168 158 147
0.00685 0.36763 -0.64373 160 148 138
0.00730 0.36809 -0.64422 160 153 139
0.00765 0.36779 -0.64403 158 146 141
0.00843 0.36770 -0.64558 165 154 136
0.00875 0.36775 -0.64543 163 151 136
0.00878 0.36739 -0.64539 161 148 132
0.01154 0.36740 -0.64873 169 157 147
0.01175 0.36742 -0.64847 161 147 138
0.01211 0.36710 -0.64827 161 146 134
0.01196 0.36713 -0.64906 168 155 144
0.01228 0.36717 -0.64889 161 147 138
0.01264 0.36685 -0.64870 156 146 137
0.01193 0.36678 -0.64943 182 166 153
0.01211 0.36679 -0.64913 168 152 148
0.01247 0.36647 -0.64894 160 147 139
0.01225 0.36679 -0.64880 160 146 143
0.01262 0.36647 -0.64861 159 147 137
0.01161 0.36637 -0.64953 191 178 161
0.01130 0.36596 -0.64964 189 177 162
0.01189 0.36637 -0.64886 166 150 140
0.01225 0.36605 -0.64867 160 149 129
0.01166 0.36601 -0.64951 190 178 162
0.01135 0.36560 -0.64962 190 178 162
0.01138 0.36554 -0.64871 171 158 142
0.01152 0.36555 -0.64839 160 149 133
0.01189 0.36523 -0.64820 159 147 137
0.01031 0.36497 -0.64811 187 172 159
0.01000 0.36456 -0.64822 189 180 161
0.01092 0.36507 -0.64822 169 155 146
0.01128 0.36476 -0.64803 160 148 138
0.01123 0.36511 -0.64805 160 147 140
0.01159 0.36479 -0.64786 160 148 134
0.00990 0.36451 -0.64766 182 172 156
0.00960 0.36411 -0.64777 191 180 165
0.01054 0.36462 -0.64780 165 154 143
0.01090 0.36431 -0.64761 158 151 135
0.00973 0.36411 -0.64744 181 169 158
0.01032 0.36421 -0.64753 164 153 142
0.01068 0.36389 -0.64734 158 149 132
0.01212 0.36449 -0.64737 154 144 134
0.01176 0.36480 -0.64756 159 146 130
0.01179 0.36444 -0.64752 158 146 135
0.01182 0.36408 -0.64748 158 146 138
0.01209 0.36485 -0.64740 157 144 130
0.01242 0.36489 -0.64725 146 139 125
0.01249 0.36454 -0.64725 146 136 126
0.01279 0.36494 -0.64713 146 142 125
0.01282 0.36458 -0.64709 149 140 130
0.01285 0.36422 -0.64706 152 136 123
0.00922 0.36364 -0.64689 176 165 150
0.00968 0.36371 -0.64687 162 152 137
0.01004 0.36340 -0.64668 160 149 136
0.01221 0.36414 -0.64738 155 140 132
0.01191 0.36373 -0.64750 157 147 133
0.01224 0.36377 -0.64734 153 141 127
0.01257 0.36382 -0.64719 146 132 118
0.00879 0.36321 -0.64688 187 176 158
0.00849 0.36282 -0.64699 189 178 164
0.00914 0.36290 -0.64669 171 162 137
0.01323 0.36286 -0.64805 147 135 126
0.01286 0.36318 -0.64824 158 146 136
0.01289 0.36282 -0.64820 157 145 136
0.01320 0.36323 -0.64808 149 138 129
0.01353 0.36327 -0.64793 144 135 122
0.01356 0.36291 -0.64789 147 135 121
0.01320 0.36251 -0.64842 156 143 130
0.01284 0.36283 -0.64861 159 147 132
0.01287 0.36246 -0.64857 158 147 131
0.01290 0.36210 -0.64853 159 146 131
0.01386 0.36261 -0.64856 147 133 124
0.01431 0.36268 -0.64850 147 135 123
0.01459 0.36271 -0.64831 155 142 129
0.01490 0.36312 -0.64819 159 144 132
0.01493 0.36275 -0.64815 158 145 133
0.01496 0.36239 -0.64811 156 143 130
0.01378 0.36224 -0.64888 154 141 130
0.01347 0.36183 -0.64900 156 147 134
0.01414 0.36192 -0.64868 141 127 120
0.01439 0.36234 -0.64898 145 129 123
0.01476 0.36201 -0.64878 148 138 131
0.01477 0.36239 -0.64886 148 133 128
0.01514 0.36206 -0.64866 155 143 134
0.01507 0.36243 -0.64867 154 141 133
0.01543 0.36210 -0.64847 155 143 129
0.01398 0.36190 -0.64900 152 141 129
0.01367 0.36149 -0.64911 156 146 132
0.01435 0.36158 -0.64880 141 130 115
0.01018 0.36095 -0.64819 184 172 157
0.00982 0.36127 -0.64838 188 175 164
0.00985 0.36090 -0.64834 187 175 161
0.00988 0.36054 -0.64830 185 174 155
0.01015 0.36131 -0.64823 186 173 160
0.01048 0.36135 -0.64808 175 162 150
0.01066 0.36030 -0.64851 179 167 146
0.01129 0.36039 -0.64863 166 154 136
0.01165 0.36007 -0.64844 157 146 130
0.01196 0.36049 -0.64879 158 149 131
0.01226 0.36090 -0.64867 156 151 123
0.01229 0.36054 -0.64863 157 149 130
0.01232 0.36017 -0.64860 158 145 133
0.01458 0.36089 -0.64935 145 135 121
0.01422 0.36121 -0.64954 158 147 131
0.01425 0.36084 -0.64950 155 144 130
0.01428 0.36047 -0.64947 154 143 131
0.01455 0.36126 -0.64939 148 137 121
0.01489 0.36130 -0.64923 140 129 113
0.01486 0.36092 -0.64914 142 131 115
0.01517 0.36134 -0.64902 150 140 125
0.01520 0.36097 -0.64898 153 141 125
0.01523 0.36060 -0.64894 153 142 126
0.01956 0.36163 -0.66417 191 181 169
0.01915 0.36199 -0.66439 194 182 173
0.01918 0.36158 -0.66435 192 184 170
0.01998 0.36168 -0.66404 185 173 164
0.02039 0.36132 -0.66382 184 171 160
0.01035 0.35989 -0.64862 184 172 154
0.00999 0.36021 -0.64881 185 174 151
0.01002 0.35984 -0.64877 185 173 153
0.01005 0.35948 -0.64873 184 173 154
0.01067 0.35993 -0.64845 176 163 149
0.01128 0.36002 -0.64856 163 150 134
0.01165 0.35970 -0.64837 157 147 133
0.01444 0.36049 -0.64915 143 135 125
0.01447 0.36012 -0.64911 142 135 133
0.01473 0.36053 -0.64895 142 134 120
0.01509 0.36020 -0.64875 154 141 131
0.01938 0.36119 -0.66447 192 183 163
0.01897 0.36156 -0.66469 194 185 172
0.01901 0.36114 -0.66465 193 184 164
0.01904 0.36073 -0.66460 193 181 163
0.01942 0.36078 -0.66443 192 179 161
0.01967 0.36123 -0.66421 189 180 164
0.02008 0.36086 -0.66399 183 173 158
0.01075 0.35959 -0.64893 183 172 158
0.01045 0.35918 -0.64904 184 174 158
0.01115 0.35964 -0.64883 174 162 152
0.01179 0.35973 -0.64896 162 150 135
0.01215 0.35941 -0.64877 158 145 143
0.01473 0.36015 -0.64889 146 136 131
0.01476 0.35978 -0.64885 147 138 128
0.01510 0.35983 -0.64869 154 144 130
0.01992 0.36085 -0.66438 189 178 161
0.01958 0.36039 -0.66451 190 178 162
0.01995 0.36044 -0.66433 187 176 159
0.02033 0.36049 -0.66416 182 173 156
0.01077 0.35922 -0.64888 182 172 157
0.01047 0.35881 -0.64899 184 174 158
0.01115 0.35927 -0.64877 172 160 150
0.01179 0.35936 -0.64890 160 148 140
0.01215 0.35904 -0.64871 159 144 148
0.01027 0.35877 -0.64834 180 170 155
0.00997 0.35836 -0.64845 183 173 159
0.01072 0.35883 -0.64830 170 159 150
0.06085 0.36711 -0.74804 138 141 124
0.01028 0.35840 -0.64828 177 169 155
0.00997 0.35800 -0.64839 182 170 157
0.01073 0.35847 -0.64824 167 157 146
0.01016 0.35802 -0.64811 177 166 155
0.00986 0.35761 -0.64822 180 169 154
0.00997 0.35763 -0.64786 174 163 151
0.00967 0.35722 -0.64798 179 170 156
0.00970 0.35722 -0.64754 172 163 148
0.00995 0.35689 -0.64817 179 168 155
0.00959 0.35721 -0.64836 180 169 157
0.00962 0.35685 -0.64832 180 169 156
0.00965 0.35649 -0.64828 179 169 147
0.01019 0.35693 -0.64793 171 159 147
0.01098 0.35703 -0.64821 160 149 138
0.01134 0.35671 -0.64802 157 145 133
0.01020 0.35656 -0.64834 177 166 147
0.00990 0.35616 -0.64846 178 167 145
0.01038 0.35659 -0.64805 169 156 144
0.01109 0.35668 -0.64825 159 147 137
0.01145 0.35636 -0.64805 157 145 129
0.05466 0.36222 -0.73932 147 145 124
0.05491 0.36225 -0.73863 155 149 133
0.05678 0.36250 -0.73998 164 157 144
0.01049 0.35623 -0.64808 168 157 142
0.01101 0.35630 -0.64811 159 148 134
0.01138 0.35598 -0.64792 155 146 125
0.05445 0.36155 -0.73892 148 146 125
0.05503 0.36163 -0.73865 153 149 131
0.05711 0.36190 -0.74026 164 158 145
0.05919 0.36217 -0.74185 183 177 163
0.05984 0.36159 -0.74150 180 175 160
0.01430 0.35562 -0.64955 151 143 128
0.01393 0.35594 -0.64975 154 149 129
0.01396 0.35557 -0.64971 154 147 129
0.01400 0.35520 -0.64967 155 146 130
0.01427 0.35599 -0.64959 151 145 127
0.01461 0.35603 -0.64943 145 138 122
0.01534 0.35575 -0.65003 142 135 128
0.01565 0.35616 -0.64991 140 133 119
0.01568 0.35579 -0.64987 140 133 124
0.01571 0.35542 -0.64983 143 132 125
0.01465 0.35528 -0.64980 150 141 128
0.01434 0.35487 -0.64992 156 146 132
0.01538 0.35537 -0.65000 142 133 125
0.01576 0.35505 -0.64981 146 133 124
0.01511 0.35496 -0.65016 150 140 126
0.01549 0.35463 -0.64996 142 130 116
0.01567 0.35503 -0.65020 142 131 119
0.01604 0.35470 -0.65000 148 136 124
0.01508 0.35457 -0.65053 154 144 131
0.01470 0.35490 -0.65073 156 146 133
0.01473 0.35453 -0.65069 156 145 131
0.01476 0.35415 -0.65065 155 144 129
0.01542 0.35462 -0.65038 148 138 124
0.01580 0.35429 -0.65018 142 130 116
0.01550 0.35424 -0.65085 152 143 128
0.01519 0.35382 -0.65097 157 145 131
0.01587 0.35429 -0.65071 147 136 122
0.01624 0.35396 -0.65051 143 131 118
0.01571 0.35388 -0.65097 154 141 128
0.01539 0.35346 -0.65109 158 146 131
0.01608 0.35355 -0.65077 148 133 121
0.01603 0.35393 -0.65079 149 134 122
0.01640 0.35360 -0.65059 145 131 119
0.01479 0.35266 -0.64993 148 139 126
0.01445 0.35261 -0.65008 153 144 130
0.01513 0.35270 -0.64977 142 132 120
0.01516 0.35233 -0.64973 141 130 117
0.01486 0.35222 -0.65231 165 154 141
0.01496 0.35224 -0.65192 158 146 133
0.01534 0.35191 -0.65172 155 144 131
0.01444 0.35224 -0.65001 153 145 130
0.01407 0.35257 -0.65021 155 146 132
0.01410 0.35219 -0.65017 156 146 132
0.01413 0.35182 -0.65013 155 146 131
0.01447 0.35186 -0.64997 153 145 131
0.01431 0.35224 -0.64942 148 138 125
0.01468 0.35191 -0.64923 142 129 116
0.01431 0.35179 -0.65172 163 151 140
0.01468 0.35146 -0.65153 155 144 131
0.01439 0.35181 -0.65132 155 143 133
0.01477 0.35148 -0.65112 153 145 130
0.01407 0.35184 -0.64913 147 137 126
0.01444 0.35152 -0.64894 142 132 117
0.01400 0.35145 -0.64947 152 145 129
0.01366 0.35141 -0.64963 154 146 130
0.01369 0.35103 -0.64959 154 143 132
0.01397 0.35146 -0.64897 145 137 123
0.01434 0.35114 -0.64878 142 133 119
0.01289 0.35062 -0.64832 151 142 127
0.01259 0.35021 -0.64844 154 144 128
0.01330 0.35067 -0.64823 142 135 119
0.01366 0.35034 -0.64803 141 132 116
0.01228 0.35020 -0.64769 149 141 123
0.01198 0.34979 -0.64781 154 142 126
0.01265 0.34988 -0.64750 140 131 116
0.01291 0.35027 -0.64780 140 134 116
0.01616 0.34998 -0.65409 168 157 140
0.01578 0.35032 -0.65429 169 158 144
0.01581 0.34994 -0.65425 168 157 140
0.01584 0.34955 -0.65421 167 156 139
0.01619 0.34960 -0.65405 166 156 138
0.01238 0.34984 -0.64772 148 138 123
0.01208 0.34943 -0.64784 153 141 127
0.01275 0.34952 -0.64753 141 130 118
0.01667 0.34965 -0.65400 159 151 133
0.01705 0.34931 -0.65380 153 145 128
0.01636 0.34922 -0.65413 166 155 139
0.01600 0.34917 -0.65430 168 156 142
0.01603 0.34879 -0.65426 168 156 141
0.01672 0.34927 -0.65399 159 149 132
0.01711 0.34893 -0.65378 153 143 129
0.01633 0.34883 -0.65404 166 154 138
0.01601 0.34840 -0.65416 168 156 139
0.01671 0.34888 -0.65390 159 147 132
0.01709 0.34854 -0.65370 152 144 131
0.01624 0.34844 -0.65388 164 152 135
0.01592 0.34801 -0.65401 167 156 139
0.01664 0.34849 -0.65377 157 146 131
0.01703 0.34815 -0.65357 152 143 130
0.01691 0.34809 -0.65444 162 150 132
0.01730 0.34775 -0.65424 153 143 126
0.01749 0.34815 -0.65449 154 145 127
0.01787 0.34780 -0.65428 152 142 127
0.01497 0.34604 -0.65276 161 149 132
0.01465 0.34562 -0.65288 163 154 138
0.01534 0.34571 -0.65255 153 142 124
0.01526 0.34609 -0.65255 155 141 127
0.01564 0.34575 -0.65235 150 141 123
0.01578 0.34569 -0.65345 160 149 133
0.01546 0.34526 -0.65358 164 153 136
0.01616 0.34535 -0.65325 153 143 122
0.01698 0.34533 -0.65451 159 150 129
0.01737 0.34499 -0.65430 152 142 124
0.01795 0.34493 -0.65585 164 153 133
0.01756 0.34528 -0.65606 164 155 139
0.01759 0.34488 -0.65601 164 155 137
0.01762 0.34449 -0.65597 163 155 136
0.01821 0.34497 -0.65559 158 147 128
0.01860 0.34463 -0.65538 152 141 124
0.01887 0.34456 -0.65664 162 154 132
0.01854 0.34411 -0.65677 163 155 138
0.01921 0.34416 -0.65690 161 153 133
0.01888 0.34372 -0.65702 164 154 139
0.01916 0.34377 -0.65677 162 151 135
0.01965 0.34382 -0.65672 154 142 126
0.02004 0.34347 -0.65651 151 139 123
0.01798 0.34332 -0.65610 164 151 138
0.01759 0.34366 -0.65631 165 155 140
0.01763 0.34327 -0.65627 166 154 138
0.01766 0.34287 -0.65622 163 151 135
0.01802 0.34292 -0.65606 162 150 136
0.01845 0.34297 -0.65596 158 146 131
0.01812 0.34253 -0.65609 161 150 134
0.01884 0.34262 -0.65575 149 137 126
0.01895 0.34302 -0.65593 152 139 127
0.01935 0.34267 -0.65572 149 137 128
0.02690 0.34187 -0.67177 169 157 145
0.02646 0.34226 -0.67200 171 159 150
0.02650 0.34181 -0.67196 169 157 146
0.02653 0.34137 -0.67191 169 157 143
0.02687 0.34231 -0.67182 170 157 147
0.02734 0.34192 -0.67162 161 150 135
0.02771 0.34242 -0.67148 161 153 139
0.02775 0.34197 -0.67143 162 151 138
0.02778 0.34153 -0.67138 162 150 137
0.01814 0.34257 -0.65560 156 144 128
0.01781 0.34213 -0.65572 160 150 131
0.01853 0.34223 -0.65539 148 138 120
0.02699 0.34142 -0.67178 168 155 142
0.02662 0.34093 -0.67192 168 157 142
0.02743 0.34103 -0.67154 157 146 135
0.01804 0.34179 -0.65536 154 143 122
0.01844 0.34144 -0.65516 149 139 121
0.01763 0.34135 -0.65541 158 148 129
0.01731 0.34091 -0.65553 158 149 130
0.01767 0.34096 -0.65537 158 147 129
0.01494 0.34161 -0.65046 150 140 128
0.01456 0.34195 -0.65066 148 142 124
0.01459 0.34157 -0.65062 150 142 125
0.01462 0.34119 -0.65058 152 141 125
0.01491 0.34199 -0.65050 148 141 129
0.01525 0.34204 -0.65034 143 132 120
0.01572 0.34166 -0.65070 142 131 119
0.01604 0.34208 -0.65058 139 126 112
0.01607 0.34170 -0.65054 138 128 114
0.01610 0.34132 -0.65050 137 129 118
0.01697 0.34174 -0.65088 143 135 121
0.01694 0.34212 -0.65092 143 133 115
0.01734 0.34141 -0.65068 148 140 132
0.01457 0.34124 -0.65005 150 138 126
0.01426 0.34082 -0.65017 152 139 124
0.01545 0.34091 -0.65032 140 129 114
0.01583 0.34057 -0.65012 138 130 113
0.01444 0.34050 -0.64980 146 137 116
0.01413 0.34008 -0.64992 149 141 120
0.01482 0.34017 -0.64960 137 129 111
0.01548 0.33972 -0.65061 142 134 115
0.01514 0.33968 -0.65077 149 139 120
0.01583 0.33977 -0.65045 137 128 112
0.01586 0.33939 -0.65042 138 128 115
0.01639 0.33927 -0.65186 148 139 123
0.01601 0.33960 -0.65206 151 140 122
0.01604 0.33922 -0.65202 151 140 126
0.01607 0.33884 -0.65198 149 140 129
0.01703 0.33887 -0.65237 146 138 129
0.01671 0.33844 -0.65250 148 141 131
0.01802 0.33851 -0.65273 139 128 124
0.01841 0.33817 -0.65253 140 128 121
0.02079 0.33638 -0.65540 140 132 117
0.02039 0.33673 -0.65561 148 139 124
0.02043 0.33633 -0.65557 148 138 121
0.02118 0.33603 -0.65519 134 127 112
0.02107 0.33525 -0.65495 139 128 116
0.02091 0.33533 -0.65430 145 134 125
0.02130 0.33498 -0.65410 147 135 126
0.01844 0.33257 -0.64817 135 124 109
0.01809 0.33253 -0.64833 138 127 110
0.01812 0.33215 -0.64829 138 125 118
0.02358 0.33074 -0.65854 145 136 115
0.02318 0.33110 -0.65876 148 136 120
0.02321 0.33070 -0.65872 146 137 119
0.02325 0.33029 -0.65867 146 135 122
0.02373 0.33082 -0.65816 140 129 109
0.02413 0.33046 -0.65794 136 125 107
0.02418 0.33037 -0.65850 139 128 108
0.02459 0.33001 -0.65829 136 126 110
0.02354 0.32994 -0.65835 144 131 121
0.02320 0.32948 -0.65848 146 133 123
0.02395 0.32958 -0.65814 136 124 113
0.02366 0.32365 -0.65268 130 118 104
0.02357 0.32306 -0.65350 136 123 114
0.02317 0.32341 -0.65371 137 126 116
0.02321 0.32301 -0.65367 137 124 118
0.02324 0.32261 -0.65363 137 123 117
0.02339 0.32270 -0.65328 136 121 109
0.02306 0.32225 -0.65340 137 124 110
0.02342 0.32230 -0.65323 136 121 104
0.02112 0.32278 -0.64737 122 110 94
0.02074 0.32312 -0.64757 116 105 88
0.02077 0.32274 -0.64753 118 106 91
0.02080 0.32236 -0.64749 120 107 93
0.02108 0.32316 -0.64741 122 110 94
0.02143 0.32321 -0.64725 127 115 100
0.02146 0.32283 -0.64721 127 114 97
0.02178 0.32325 -0.64709 131 118 102
0.02181 0.32287 -0.64705 132 119 103
0.02145 0.32235 -0.64759 124 113 97
0.02114 0.32193 -0.64771 121 107 95
0.02180 0.32240 -0.64743 129 116 101
0.02218 0.32206 -0.64722 133 121 105
0.02203 0.32246 -0.64717 132 120 104
0.02235 0.32289 -0.64705 135 122 106
0.02238 0.32251 -0.64701 135 124 110
0.02241 0.32213 -0.64697 135 123 107
0.02119 0.32202 -0.64730 125 113 100
0.02087 0.32160 -0.64742 119 106 94
0.02140 0.32209 -0.64702 130 118 103
0.02178 0.32176 -0.64682 135 123 106
0.02128 0.32163 -0.64731 127 112 100
0.02096 0.32121 -0.64743 118 110 95
0.02133 0.32173 -0.64690 131 118 106
0.02170 0.32140 -0.64670 133 121 103
0.02156 0.32121 -0.64747 125 114 97
0.02124 0.32078 -0.64759 117 110 91
0.02193 0.32088 -0.64727 129 118 100
0.02153 0.32132 -0.64700 130 119 102
0.02190 0.32099 -0.64680 133 120 103
0.02163 0.32082 -0.64747 124 114 94
0.02132 0.32040 -0.64759 120 112 93
0.02201 0.32049 -0.64727 131 119 101
0.02221 0.31827 -0.65140 129 114 100
0.02188 0.31783 -0.65153 132 119 103
0.02252 0.31832 -0.65120 114 102 94
0.02291 0.31798 -0.65099 108 98 85
0.02205 0.31936 -0.64710 132 117 95
0.02167 0.31969 -0.64730 126 113 95
0.02170 0.31931 -0.64726 126 114 91
0.02239 0.31940 -0.64694 134 119 104
0.02242 0.31902 -0.64690 135 120 103
0.02228 0.31783 -0.64846 120 106 91
0.02189 0.31817 -0.64866 119 101 87
0.02193 0.31779 -0.64862 118 104 83
0.02260 0.31826 -0.64834 125 112 98
0.02263 0.31788 -0.64829 124 111 100
0.02266 0.31750 -0.64825 125 112 99
0.02249 0.31729 -0.64903 118 104 84
0.02210 0.31763 -0.64923 117 105 84
0.02214 0.31724 -0.64919 119 101 82
0.02217 0.31686 -0.64915 118 100 86
0.02252 0.31690 -0.64899 117 102 88
0.02243 0.31742 -0.64852 123 108 94
0.02282 0.31708 -0.64832 126 113 102
0.02486 0.31563 -0.65385 130 116 106
0.02489 0.31522 -0.65380 127 113 98
0.02248 0.31703 -0.64849 122 109 95
0.02251 0.31665 -0.64845 120 111 98
0.02286 0.31670 -0.64829 126 114 103
0.02560 0.31520 -0.65393 114 102 91
0.02527 0.31475 -0.65406 127 113 99
0.02600 0.31484 -0.65372 109 97 85
0.02626 0.31425 -0.65436 109 97 80
0.02589 0.31421 -0.65453 124 112 96
0.02592 0.31380 -0.65448 121 110 94
0.02663 0.31430 -0.65419 109 98 81
0.02624 0.31279 -0.65511 128 118 105
0.02583 0.31315 -0.65532 132 123 106
0.02587 0.31275 -0.65528 130 122 105
0.02590 0.31234 -0.65524 132 118 102
0.02658 0.31325 -0.65498 119 107 95
0.02661 0.31284 -0.65494 117 102 93
0.02655 0.31232 -0.65531 129 117 100
0.02621 0.31186 -0.65544 132 119 109
0.02686 0.31238 -0.65508 114 100 87
0.02719 0.31284 -0.65495 109 95 83
0.02723 0.31243 -0.65491 109 95 85
0.02726 0.31203 -0.65486 109 98 85
0.02716 0.31177 -0.65577 129 117 100
0.02745 0.31184 -0.65552 112 100 84
0.02786 0.31148 -0.65531 110 96 85
0.02713 0.31123 -0.65617 128 118 111
0.02672 0.31159 -0.65638 131 117 109
0.02675 0.31118 -0.65634 131 120 114
0.02679 0.31077 -0.65630 132 118 110
0.02787 0.31119 -0.65631 125 112 106
0.02828 0.31082 -0.65609 109 92 85
0.02816 0.31126 -0.65606 109 96 88
0.02856 0.31090 -0.65584 111 96 81
0.02805 0.31059 -0.65690 129 116 105
0.02771 0.31013 -0.65703 131 117 108
0.02846 0.31022 -0.65668 120 107 100
0.02828 0.31068 -0.65659 123 109 102
0.02381 0.31280 -0.64939 125 105 92
0.02342 0.31315 -0.64960 122 102 88
0.02345 0.31276 -0.64956 120 102 88
0.02413 0.31324 -0.64927 128 109 97
0.02419 0.31246 -0.64919 127 111 96
0.02376 0.31295 -0.64889 130 110 93
0.02408 0.31339 -0.64877 131 115 100
0.02411 0.31300 -0.64873 133 116 98
0.02846 0.31008 -0.65719 128 116 105
0.02812 0.30961 -0.65732 130 118 107
0.02888 0.31026 -0.65654 108 94 89
0.02926 0.31031 -0.65637 111 97 84
0.02929 0.30990 -0.65632 109 98 82
0.02385 0.31241 -0.64937 123 110 94
0.02353 0.31198 -0.64949 119 105 94
0.02388 0.31202 -0.64932 125 109 96
0.02424 0.31207 -0.64916 128 112 97
0.02881 0.30973 -0.65691 117 105 95
0.02922 0.30936 -0.65669 108 94 83
0.02906 0.30981 -0.65662 106 95 84
0.02947 0.30945 -0.65641 111 98 82
0.02945 0.30900 -0.65789 127 113 107
0.02910 0.30853 -0.65803 130 116 106
0.02919 0.30922 -0.65716 114 100 96
0.02960 0.30886 -0.65695 106 97 85
0.02978 0.30850 -0.65811 127 113 105
0.02943 0.30803 -0.65824 128 116 101
0.03019 0.30813 -0.65789 108 99 88
0.02944 0.30875 -0.65731 108 99 93
0.02986 0.30838 -0.65709 107 98 85
0.03059 0.30787 -0.65874 124 111 101
0.03024 0.30740 -0.65887 126 114 99
0.03136 0.30724 -0.65933 122 110 98
0.03146 0.30737 -0.65891 107 98 83
0.03185 0.30742 -0.65873 106 98 82
0.03188 0.30700 -0.65869 109 95 84
0.03234 0.30639 -0.66063 127 113 98
0.03191 0.30677 -0.66086 128 115 101
0.03195 0.30634 -0.66082 130 115 105
0.03198 0.30591 -0.66077 128 114 105
0.03275 0.30660 -0.65995 108 94 84
0.03317 0.30622 -0.65972 110 95 88
0.03342 0.30566 -0.66150 126 113 96
0.03306 0.30518 -0.66163 128 116 102
0.03345 0.30523 -0.66145 124 112 95
0.03385 0.30528 -0.66127 113 101 86
0.05041 0.29490 -0.68655 113 100 91
0.04990 0.29535 -0.68683 108 96 83
0.04998 0.29432 -0.68672 106 94 82
0.05037 0.29541 -0.68661 117 105 93
0.05084 0.29548 -0.68639 125 110 95
0.05053 0.29550 -0.68470 127 115 99
0.05096 0.29607 -0.68454 128 117 102
0.05100 0.29556 -0.68448 123 113 102
0.05057 0.29434 -0.68662 111 98 85
0.05015 0.29376 -0.68678 105 92 81
0.04897 0.29676 -0.67938 127 114 108
0.04848 0.29720 -0.67964 127 112 95
0.04852 0.29670 -0.67959 124 111 97
0.04893 0.29726 -0.67943 132 116 111
0.04902 0.29627 -0.67933 123 108 98
0.04939 0.29732 -0.67922 126 114 110
0.04873 0.29704 -0.67854 125 115 102
0.04914 0.29759 -0.67839 126 114 99
0.04918 0.29710 -0.67834 123 112 95
0.05095 0.29459 -0.68425 113 102 95
0.05081 0.29485 -0.68348 113 101 92
0.05094 0.29502 -0.68296 111 99 86
0.05111 0.29517 -0.68248 113 102 85
0.05073 0.29551 -0.68150 121 105 91
0.04927 0.29680 -0.67772 119 104 99
0.04968 0.29735 -0.67756 121 110 95
0.04987 0.29681 -0.67764 117 104 95
0.05028 0.29736 -0.67749 117 107 97
0.05032 0.29686 -0.67744 114 104 93
0.05036 0.29637 -0.67738 111 99 85
0.05105 0.29318 -0.68688 104 89 74
0.05062 0.29260 -0.68704 102 88 78
0.05109 0.29266 -0.68682 99 84 72
0.05118 0.29401 -0.68438 106 94 90
0.05121 0.29422 -0.68375 106 93 89
0.05133 0.29439 -0.68323 106 93 84
0.05137 0.29459 -0.68263 110 99 85
0.05105 0.29491 -0.68170 113 101 88
0.05071 0.29544 -0.68014 116 102 92
0.05010 0.29605 -0.67837 113 98 96
0.05074 0.29605 -0.67832 111 98 91
0.05123 0.29561 -0.67806 105 94 81
0.05140 0.29278 -0.68644 102 87 74
0.05097 0.29220 -0.68661 97 84 74
0.05144 0.29226 -0.68639 96 83 71
0.05177 0.29288 -0.68614 102 91 81
0.05174 0.29333 -0.68480 98 89 90
0.05177 0.29353 -0.68418 98 89 83
0.05174 0.29376 -0.68350 99 89 78
0.05208 0.29387 -0.68318 106 96 82
0.05203 0.29410 -0.68249 105 97 83
0.05253 0.29365 -0.68223 101 93 81
0.05178 0.29460 -0.68101 107 98 90
0.05228 0.29416 -0.68075 104 92 84
0.05162 0.29487 -0.68025 106 97 93
0.05144 0.29514 -0.67946 105 97 93
0.05200 0.29516 -0.67935 104 96 88
0.05249 0.29472 -0.67908 101 88 81
0.05170 0.29240 -0.68598 95 83 75
0.05222 0.29194 -0.68570 90 79 64
0.05192 0.29255 -0.68552 92 83 77
0.05243 0.29209 -0.68525 88 80 66
0.05211 0.29292 -0.68440 89 81 74
0.05228 0.29308 -0.68391 92 83 73
0.05277 0.29314 -0.68371 102 91 80
0.05304 0.29327 -0.68332 101 94 81
0.05355 0.29282 -0.68305 100 88 79
0.05172 0.29189 -0.68590 91 80 68
0.05129 0.29131 -0.68606 99 89 74
0.05176 0.29137 -0.68584 94 82 65
0.05223 0.29144 -0.68562 93 82 64
0.05235 0.29256 -0.68388 90 81 71
0.05240 0.29205 -0.68383 93 86 75
0.05286 0.29211 -0.68361 97 87 77
0.05312 0.29252 -0.68394 98 86 76
0.05363 0.29207 -0.68367 96 86 78
