ply
format ascii 1.0
element face 0
property list uchar int vertex_indices
element vertex 1310
property float x
property float y
property float z
property uchar diffuse_red
property uchar diffuse_green
property uchar diffuse_blue
end_header
-0.03781 0.38227 -0.87839 133 121 110
-0.03703 0.38157 -0.87802 135 120 115
-0.00681 0.38756 -0.88654 152 143 126
-0.00611 0.38848 -0.88628 145 135 119
0.01858 0.39542 -0.93426 155 156 163
0.01759 0.39630 -0.93473 97 103 125
0.01767 0.39531 -0.93465 121 123 138
0.02256 0.39630 -0.93774 175 176 180
0.03150 0.39782 -0.93995 122 120 120
0.03236 0.39893 -0.93963 129 124 114
0.03244 0.39792 -0.93955 129 123 116
0.03252 0.39691 -0.93947 127 122 112
0.06675 0.38763 -0.76037 150 147 133
-0.04927 0.38187 -0.90327 165 158 152
-0.04997 0.38095 -0.90354 171 163 150
-0.04856 0.38189 -0.90226 157 148 145
-0.04789 0.38186 -0.90071 141 131 129
-0.04749 0.38152 -0.89594 123 115 114
-0.04691 0.38142 -0.89367 110 104 100
-0.03938 0.38172 -0.88399 108 100 88
-0.04005 0.38084 -0.88424 101 96 88
-0.03879 0.38167 -0.88241 118 107 95
-0.03816 0.38167 -0.88124 129 116 106
-0.03737 0.38096 -0.88087 130 120 107
-0.01046 0.38571 -0.88088 148 140 126
-0.01115 0.38481 -0.88114 142 135 118
-0.00891 0.38622 -0.88424 157 146 134
-0.00809 0.38548 -0.88385 160 148 132
-0.00668 0.38676 -0.88679 155 144 133
-0.00585 0.38601 -0.88639 146 140 125
0.03072 0.39644 -0.93696 118 117 117
0.06855 0.38763 -0.76441 157 152 134
0.06794 0.38818 -0.76470 160 154 136
0.06798 0.38757 -0.76465 157 153 132
0.06779 0.38736 -0.76250 156 151 138
0.06758 0.38723 -0.76129 148 141 134
0.06726 0.38708 -0.75997 138 130 124
0.06786 0.38654 -0.75969 133 127 118
-0.04912 0.38114 -0.90436 167 156 147
-0.04837 0.38120 -0.90375 159 145 139
-0.04772 0.38115 -0.90192 142 129 126
-0.04728 0.38088 -0.89773 123 116 115
-0.04671 0.38076 -0.89521 109 105 105
-0.04596 0.38084 -0.89486 103 97 97
-0.04527 0.38173 -0.89460 99 99 90
-0.04521 0.38092 -0.89454 100 96 92
-0.04514 0.38011 -0.89447 101 94 94
-0.03909 0.38112 -0.88592 108 99 87
-0.03852 0.38106 -0.88416 117 106 92
-0.03786 0.38108 -0.88326 127 116 102
-0.03706 0.38037 -0.88288 130 121 106
-0.01017 0.38502 -0.88189 147 138 121
-0.01086 0.38411 -0.88215 143 136 119
-0.00875 0.38545 -0.88465 157 147 129
-0.00792 0.38470 -0.88425 160 150 130
-0.00669 0.38589 -0.88640 156 144 129
0.02990 0.39506 -0.93383 114 110 119
0.06765 0.38664 -0.76129 142 138 128
0.06714 0.38644 -0.75971 136 130 122
0.06773 0.38590 -0.75943 132 127 118
-0.04973 0.38034 -0.90596 171 164 150
-0.05057 0.38109 -0.90636 173 166 151
-0.05050 0.38026 -0.90629 174 168 153
-0.05044 0.37942 -0.90623 174 167 156
-0.04896 0.38042 -0.90550 167 156 146
-0.04820 0.38049 -0.90503 160 148 139
-0.04747 0.38052 -0.90412 144 134 128
-0.04706 0.38022 -0.89952 126 118 116
-0.04648 0.38011 -0.89705 111 105 107
-0.04577 0.38015 -0.89622 104 96 99
-0.04495 0.37942 -0.89583 100 94 90
-0.04001 0.38058 -0.89105 98 91 85
-0.04082 0.38131 -0.89143 97 92 95
-0.04070 0.37969 -0.89131 92 84 84
-0.04007 0.38139 -0.89111 97 94 93
-0.03941 0.38054 -0.88939 101 94 86
-0.03878 0.38052 -0.88801 106 98 90
-0.03818 0.38050 -0.88652 115 105 93
-0.03745 0.38057 -0.88608 126 115 99
-0.03665 0.37985 -0.88570 131 122 106
-0.00652 0.38510 -0.88680 156 145 126
-0.00534 0.38539 -0.88830 146 140 122
-0.00450 0.38464 -0.88790 143 136 122
0.06726 0.38593 -0.76069 132 131 127
-0.04967 0.37950 -0.90580 171 163 154
-0.05038 0.37857 -0.90607 172 165 155
-0.04890 0.37958 -0.90547 166 158 149
-0.04814 0.37965 -0.90497 160 152 142
-0.04735 0.37975 -0.90479 144 140 132
-0.04685 0.37955 -0.90113 124 122 114
-0.04628 0.37944 -0.89859 110 105 100
-0.04559 0.37945 -0.89744 103 97 93
-0.04477 0.37871 -0.89704 98 95 84
-0.03980 0.37990 -0.89234 95 88 87
-0.04049 0.37900 -0.89260 86 83 82
-0.03913 0.37991 -0.89123 99 92 89
-0.03845 0.37994 -0.89034 105 96 91
-0.00635 0.38432 -0.88720 157 146 128
-0.00552 0.38357 -0.88680 149 139 122
-0.00519 0.38459 -0.88859 149 139 122
-0.00435 0.38384 -0.88819 143 135 124
-0.04961 0.37866 -0.90570 169 162 151
-0.05032 0.37773 -0.90597 171 163 156
-0.04882 0.37876 -0.90561 165 156 145
-0.04799 0.37890 -0.90589 160 151 142
-0.04721 0.37900 -0.90568 145 141 136
-0.04660 0.37891 -0.90335 123 122 118
-0.04612 0.37872 -0.89969 108 106 97
-0.04544 0.37871 -0.89836 101 99 88
-0.04462 0.37798 -0.89797 97 95 87
-0.03951 0.37927 -0.89438 92 87 84
-0.03878 0.37933 -0.89380 98 91 87
-0.03800 0.37944 -0.89369 103 96 89
-0.00623 0.38351 -0.88739 156 145 125
0.00107 0.38550 -0.90032 160 154 135
0.00195 0.38471 -0.89990 159 158 134
0.06650 0.38389 -0.75062 203 199 182
0.06707 0.38337 -0.75034 208 201 188
-0.04787 0.37812 -0.90653 159 147 139
-0.04706 0.37824 -0.90658 145 137 133
-0.04648 0.37813 -0.90388 123 120 116
-0.04590 0.37804 -0.90138 108 106 97
-0.04524 0.37802 -0.89980 101 98 89
-0.04442 0.37727 -0.89940 95 95 93
-0.03929 0.37857 -0.89574 89 84 79
-0.03849 0.37869 -0.89576 97 89 85
-0.00626 0.38263 -0.88691 156 147 127
-0.00496 0.38295 -0.88891 147 141 123
-0.00412 0.38220 -0.88851 142 136 118
0.00118 0.38463 -0.90041 159 154 135
0.00206 0.38385 -0.89999 160 158 132
0.00329 0.38503 -0.90174 162 157 135
0.01423 0.38730 -0.91200 161 165 167
-0.04772 0.37736 -0.90753 156 147 137
-0.04693 0.37746 -0.90738 143 136 127
-0.04632 0.37739 -0.90502 123 120 112
-0.04571 0.37732 -0.90280 108 105 98
-0.04505 0.37731 -0.90124 99 98 95
-0.03914 0.37781 -0.89643 85 81 82
-0.00625 0.38177 -0.88657 154 148 127
-0.00485 0.38213 -0.88906 150 141 122
-0.00400 0.38138 -0.88866 142 137 112
-0.00033 0.38334 -0.89742 151 145 125
0.00104 0.38367 -0.89946 158 154 129
0.00324 0.38409 -0.90116 163 158 133
0.01085 0.38525 -0.90247 115 121 134
0.01508 0.38645 -0.91131 179 179 177
-0.04761 0.37657 -0.90812 155 151 136
-0.04681 0.37667 -0.90798 142 140 127
-0.04617 0.37663 -0.90597 124 122 115
-0.04553 0.37659 -0.90407 107 106 106
-0.04482 0.37662 -0.90296 98 98 99
-0.04420 0.37657 -0.90094 96 94 92
-0.04350 0.37749 -0.90067 94 92 89
-0.04355 0.37656 -0.89938 94 91 86
-0.04272 0.37582 -0.89898 89 86 80
-0.03892 0.37711 -0.89783 85 78 82
-0.00924 0.38035 -0.88408 145 137 119
-0.00994 0.37943 -0.88434 142 131 114
-0.00825 0.38053 -0.88479 154 144 127
-0.00742 0.37979 -0.88439 158 149 131
-0.00633 0.38087 -0.88589 156 149 130
-0.00478 0.38129 -0.88902 149 142 122
-0.00393 0.38053 -0.88862 144 138 113
0.00118 0.38282 -0.89971 157 151 129
0.00206 0.38204 -0.89929 161 150 135
0.01059 0.38423 -0.90116 117 118 132
0.01177 0.38446 -0.90215 144 144 152
0.01496 0.38545 -0.91052 183 183 183
0.02073 0.38649 -0.91403 112 121 128
-0.04743 0.37583 -0.90947 155 151 139
-0.04667 0.37589 -0.90882 143 140 130
-0.04600 0.37588 -0.90718 125 123 118
-0.04542 0.37579 -0.90444 108 107 106
-0.04472 0.37581 -0.90330 99 98 97
-0.04409 0.37579 -0.90147 96 93 87
-0.04344 0.37577 -0.89985 93 88 79
-0.04261 0.37503 -0.89945 87 84 78
-0.03871 0.37638 -0.89905 83 76 74
-0.00938 0.37943 -0.88305 144 133 118
-0.01008 0.37852 -0.88331 140 132 119
-0.00833 0.37964 -0.88407 152 141 126
-0.00750 0.37890 -0.88367 156 149 134
-0.00643 0.37997 -0.88507 158 148 129
-0.00498 0.38033 -0.88776 150 143 119
-0.00414 0.37958 -0.88736 144 137 115
0.01035 0.38322 -0.89992 122 128 138
0.01281 0.38393 -0.90570 156 159 166
-0.04743 0.37492 -0.90850 158 151 142
-0.04666 0.37500 -0.90811 147 141 132
-0.04589 0.37507 -0.90756 129 124 117
-0.04527 0.37503 -0.90543 110 107 102
-0.04459 0.37503 -0.90394 99 99 91
-0.04390 0.37505 -0.90270 93 92 80
-0.04306 0.37430 -0.90230 87 87 75
-0.04325 0.37504 -0.90106 89 87 74
-0.04242 0.37429 -0.90067 85 82 78
-0.04185 0.37511 -0.89905 83 79 79
-0.04110 0.37518 -0.89851 78 75 74
-0.04028 0.37444 -0.89812 71 73 71
-0.03858 0.37559 -0.89960 81 77 74
-0.03929 0.37467 -0.89987 71 72 70
-0.00944 0.37855 -0.88241 141 133 124
-0.01014 0.37765 -0.88267 140 133 121
-0.00836 0.37877 -0.88354 150 142 131
-0.00754 0.37803 -0.88315 155 148 131
0.00945 0.38198 -0.89620 129 129 140
0.07883 0.39108 -0.88920 138 136 118
0.07804 0.39005 -0.88950 142 138 121
0.07890 0.39015 -0.88912 138 135 122
0.07942 0.39111 -0.88828 133 130 115
0.07986 0.39109 -0.88707 126 126 114
0.08065 0.39212 -0.88677 128 124 106
0.08072 0.39119 -0.88670 127 123 109
0.08079 0.39026 -0.88662 124 124 106
0.08069 0.38624 -0.80489 147 143 138
0.08008 0.38544 -0.80512 140 136 137
0.08190 0.38644 -0.80537 157 156 145
-0.04744 0.37401 -0.90757 160 152 142
-0.04666 0.37409 -0.90717 148 142 132
-0.04581 0.37424 -0.90765 130 124 114
-0.04515 0.37423 -0.90598 113 108 97
-0.04446 0.37425 -0.90466 100 98 86
-0.04373 0.37429 -0.90379 92 92 78
-0.04289 0.37354 -0.90339 86 86 78
-0.04165 0.37437 -0.90029 82 77 78
-0.04082 0.37363 -0.89989 72 73 70
-0.04090 0.37445 -0.89984 76 74 73
-0.04006 0.37371 -0.89945 72 72 71
-0.03838 0.37485 -0.90077 78 76 75
-0.03909 0.37393 -0.90104 71 71 70
-0.00933 0.37775 -0.88255 140 134 124
-0.01003 0.37684 -0.88282 142 135 120
-0.00927 0.37693 -0.88249 143 135 121
-0.00825 0.37796 -0.88369 149 142 128
-0.00742 0.37722 -0.88330 155 147 125
0.07991 0.39028 -0.88903 130 131 115
0.07912 0.38925 -0.88933 135 136 121
0.08085 0.38944 -0.88859 125 122 106
0.08051 0.39031 -0.88814 126 123 107
0.08145 0.38947 -0.88770 126 123 108
0.08719 0.38671 -0.81022 182 183 166
0.08794 0.38604 -0.80987 186 187 168
-0.04997 0.37268 -0.90503 168 163 154
-0.05080 0.37343 -0.90542 169 163 154
-0.05067 0.37176 -0.90529 171 167 161
-0.05003 0.37351 -0.90509 168 162 154
-0.04990 0.37184 -0.90496 169 164 158
-0.04911 0.37284 -0.90583 167 160 149
-0.04825 0.37299 -0.90658 164 159 145
-0.04740 0.37314 -0.90711 159 153 142
-0.04663 0.37322 -0.90673 147 142 132
-0.04574 0.37339 -0.90767 131 124 112
-0.04503 0.37343 -0.90651 115 106 92
-0.04432 0.37346 -0.90544 102 95 81
-0.04358 0.37352 -0.90463 92 90 78
-0.04220 0.37357 -0.90214 81 81 76
-0.04146 0.37363 -0.90154 76 77 71
-0.04062 0.37288 -0.90114 71 72 65
-0.03806 0.37418 -0.90303 75 75 71
-0.03877 0.37325 -0.90330 69 70 69
-0.00804 0.37720 -0.88432 150 140 125
-0.00721 0.37645 -0.88393 155 147 126
0.01258 0.38087 -0.90041 158 161 164
0.08037 0.38944 -0.88974 127 128 113
0.07958 0.38840 -0.89004 133 136 119
0.08131 0.38860 -0.88929 123 124 110
-0.04912 0.37193 -0.90472 167 162 155
-0.04983 0.37101 -0.90498 171 164 157
-0.04906 0.37110 -0.90465 167 162 156
-0.04822 0.37213 -0.90613 164 160 150
-0.04735 0.37229 -0.90692 159 155 145
-0.04656 0.37238 -0.90672 149 144 136
-0.04560 0.37260 -0.90842 132 127 117
-0.04488 0.37264 -0.90743 113 108 93
-0.04417 0.37268 -0.90631 100 95 80
-0.04343 0.37274 -0.90548 91 89 79
-0.04274 0.37276 -0.90420 83 83 78
-0.04204 0.37279 -0.90307 79 79 72
-0.04120 0.37204 -0.90267 74 73 66
-0.04129 0.37287 -0.90253 75 75 65
-0.04045 0.37212 -0.90214 70 70 66
-0.03787 0.37341 -0.90405 73 73 69
-0.03859 0.37247 -0.90432 68 68 69
-0.03692 0.37359 -0.90517 85 83 78
-0.00874 0.37628 -0.88457 143 135 118
-0.00951 0.37619 -0.88490 142 134 115
-0.00944 0.37537 -0.88483 142 132 115
-0.00783 0.37642 -0.88492 149 141 125
-0.00700 0.37568 -0.88453 154 148 130
-0.04812 0.37131 -0.90640 163 159 152
-0.04884 0.37038 -0.90667 168 161 153
-0.04806 0.37047 -0.90634 165 158 152
-0.04721 0.37150 -0.90774 159 154 145
-0.04642 0.37159 -0.90751 150 146 137
-0.04544 0.37182 -0.90952 134 130 120
-0.04470 0.37187 -0.90859 114 110 97
-0.04403 0.37189 -0.90707 99 96 84
-0.04330 0.37194 -0.90612 89 87 81
-0.04263 0.37195 -0.90457 81 80 79
-0.04194 0.37198 -0.90333 76 75 73
-0.04110 0.37122 -0.90293 72 71 69
-0.03775 0.37259 -0.90445 73 72 72
-0.03847 0.37165 -0.90472 68 68 68
-0.03684 0.37275 -0.90522 83 81 80
-0.04704 0.37073 -0.90903 160 153 149
-0.04776 0.36980 -0.90930 165 158 154
-0.04619 0.37086 -0.90938 151 146 141
-0.04530 0.37102 -0.91036 134 131 121
-0.04457 0.37107 -0.90927 114 112 98
-0.04390 0.37108 -0.90763 99 97 84
-0.04321 0.37110 -0.90626 89 87 78
-0.04255 0.37112 -0.90469 81 80 77
-0.04188 0.37113 -0.90322 75 74 75
-0.04104 0.37038 -0.90282 73 69 70
-0.03757 0.37181 -0.90543 73 72 73
-0.03829 0.37087 -0.90570 68 67 68
-0.03670 0.37194 -0.90582 84 81 83
-0.04677 0.37002 -0.91138 161 152 153
-0.04595 0.37013 -0.91144 153 146 142
-0.04507 0.37028 -0.91215 136 131 119
-0.04435 0.37032 -0.91098 116 113 96
-0.04376 0.37028 -0.90844 99 98 82
-0.04314 0.37026 -0.90626 88 87 77
-0.04247 0.37028 -0.90483 81 78 76
-0.04162 0.36953 -0.90442 76 72 74
-0.04185 0.37028 -0.90288 76 73 75
-0.04101 0.36952 -0.90248 72 69 71
-0.03739 0.37102 -0.90639 73 69 71
-0.03811 0.37008 -0.90667 66 65 68
-0.03656 0.37113 -0.90645 84 78 80
0.01148 0.37675 -0.89178 105 110 116
0.07653 0.38107 -0.79934 141 137 128
0.07593 0.38029 -0.79956 136 137 127
0.07701 0.38111 -0.79881 150 148 137
-0.04494 0.36946 -0.91285 139 134 120
-0.04402 0.36962 -0.91381 117 114 100
-0.04375 0.36939 -0.90769 98 98 88
-0.04313 0.36938 -0.90560 86 86 80
-0.04245 0.36941 -0.90427 80 77 76
-0.04161 0.36866 -0.90386 74 73 72
-0.03747 0.37009 -0.90504 71 68 71
-0.03819 0.36916 -0.90531 64 63 66
0.07554 0.38017 -0.79779 139 138 125
0.07495 0.37939 -0.79801 136 136 129
0.07658 0.38031 -0.79806 150 149 134
-0.04474 0.36867 -0.91423 139 135 120
-0.04384 0.36882 -0.91504 118 117 104
-0.04372 0.36853 -0.90732 100 100 92
-0.04319 0.36847 -0.90428 87 86 80
-0.04248 0.36852 -0.90323 79 76 73
-0.04164 0.36777 -0.90283 74 72 70
-0.03754 0.36918 -0.90374 69 68 71
-0.03826 0.36824 -0.90401 64 63 66
0.07549 0.37944 -0.79758 139 138 128
0.07490 0.37867 -0.79780 137 139 125
0.07681 0.37964 -0.79826 151 149 137
-0.04330 0.36753 -0.90227 88 85 76
-0.04254 0.36762 -0.90187 78 76 67
-0.04003 0.36797 -0.90265 68 67 72
-0.04088 0.36872 -0.90306 71 71 71
-0.04081 0.36788 -0.90299 71 70 72
-0.04010 0.36881 -0.90272 69 69 70
-0.03932 0.36889 -0.90239 65 65 67
-0.03919 0.36721 -0.90225 66 59 65
-0.03911 0.36812 -0.90364 65 63 69
-0.04329 0.36667 -0.90162 90 85 79
-0.04253 0.36675 -0.90117 78 77 69
-0.04187 0.36679 -0.89977 72 71 68
-0.04100 0.36692 -0.90043 69 68 69
-0.04008 0.36707 -0.90148 67 63 67
-0.03924 0.36632 -0.90108 65 59 58
-0.03823 0.36738 -0.90355 64 61 66
-0.03817 0.36653 -0.90348 62 58 60
-0.04335 0.36578 -0.90024 91 87 78
-0.04258 0.36586 -0.89992 77 76 69
-0.04187 0.36592 -0.89901 70 69 65
-0.04104 0.36518 -0.89861 68 65 62
-0.04104 0.36604 -0.89937 67 65 63
-0.04020 0.36529 -0.89898 67 62 57
-0.04017 0.36617 -0.89997 67 63 60
-0.03934 0.36542 -0.89957 64 60 56
-0.04337 0.36491 -0.89930 91 87 74
-0.04261 0.36499 -0.89890 79 76 68
-0.04190 0.36505 -0.89804 71 69 66
-0.04107 0.36431 -0.89765 68 66 61
-0.04335 0.36406 -0.89876 93 87 76
-0.04261 0.36414 -0.89823 80 77 67
-0.04191 0.36420 -0.89720 71 70 63
-0.04109 0.36345 -0.89681 68 65 60
-0.04655 0.36330 -0.91719 165 157 148
-0.04729 0.36233 -0.91747 166 160 152
-0.04580 0.36336 -0.91620 160 149 143
-0.04505 0.36343 -0.91521 153 141 136
-0.04438 0.36346 -0.91336 144 132 122
-0.04393 0.36342 -0.90923 126 116 104
-0.04403 0.36250 -0.90732 125 118 104
-0.04470 0.36158 -0.90817 142 135 125
-0.04407 0.36162 -0.90607 126 120 109
-0.04368 0.36157 -0.90148 107 102 90
-0.04025 0.36187 -0.89584 69 64 64
-0.03955 0.36278 -0.89558 66 61 58
-0.03949 0.36196 -0.89551 66 60 59
-0.03943 0.36113 -0.89545 66 60 62
-0.03668 0.36250 -0.90617 64 60 63
-0.03740 0.36156 -0.90644 65 59 60
-0.03661 0.36165 -0.90610 65 60 61
-0.03052 0.36342 -0.91512 123 115 95
-0.02964 0.36263 -0.91470 125 119 98
0.11046 0.37984 -0.89175 144 145 124
0.11128 0.38092 -0.89144 148 148 125
0.11136 0.37994 -0.89136 147 147 125
-0.04470 0.36071 -0.90729 143 136 125
-0.04399 0.36078 -0.90618 129 123 111
-0.04349 0.36078 -0.90283 111 105 94
-0.04017 0.36105 -0.89591 69 64 65
-0.03062 0.36249 -0.91375 120 113 93
0.11153 0.37898 -0.89143 145 144 124
0.11235 0.38006 -0.89112 147 145 125
0.11243 0.37908 -0.89105 145 144 124
0.11251 0.37810 -0.89097 141 143 123
-0.04466 0.35986 -0.90697 146 138 122
-0.04391 0.35993 -0.90619 132 125 107
-0.04335 0.35996 -0.90358 113 108 92
-0.04004 0.36024 -0.89648 69 67 67
-0.03998 0.35942 -0.89641 69 66 65
-0.03921 0.35950 -0.89608 64 63 63
-0.03067 0.36159 -0.91281 120 113 97
-0.02979 0.36080 -0.91240 125 118 104
-0.02952 0.36175 -0.91498 125 118 102
-0.02878 0.36273 -0.91469 126 121 100
-0.02871 0.36184 -0.91463 127 120 104
-0.02864 0.36096 -0.91456 127 119 104
0.04861 0.37127 -0.93744 117 106 88
0.04758 0.37219 -0.93792 116 106 88
0.04774 0.37014 -0.93776 111 102 83
0.04853 0.37230 -0.93752 118 109 88
0.04948 0.37240 -0.93711 122 111 90
0.05027 0.37149 -0.93907 121 112 92
0.05114 0.37263 -0.93874 126 113 96
0.05122 0.37160 -0.93866 123 114 95
0.05130 0.37056 -0.93858 121 115 98
0.09675 0.37732 -0.96416 159 157 137
0.09561 0.37835 -0.96471 154 153 132
0.09569 0.37721 -0.96462 156 157 136
0.09578 0.37606 -0.96453 161 160 139
0.09666 0.37847 -0.96425 157 153 134
0.09772 0.37859 -0.96380 159 156 136
0.11220 0.37809 -0.89236 140 139 121
-0.04543 0.35891 -0.90662 155 149 136
-0.04615 0.35797 -0.90689 162 153 143
-0.04466 0.35899 -0.90614 147 141 124
-0.04385 0.35908 -0.90607 132 127 109
-0.04321 0.35914 -0.90428 113 110 95
-0.04266 0.35917 -0.90161 97 95 86
-0.04198 0.35923 -0.90028 84 82 81
-0.04132 0.35929 -0.89889 76 74 75
-0.04070 0.35934 -0.89710 73 69 69
-0.03987 0.35860 -0.89671 68 65 63
0.09562 0.37600 -0.96135 161 161 140
0.09571 0.37486 -0.96126 163 164 145
0.09676 0.37498 -0.96081 164 166 145
0.11334 0.37725 -0.89404 132 131 113
0.11610 0.37760 -0.89670 138 136 118
-0.04520 0.35810 -0.90844 157 150 139
-0.04592 0.35716 -0.90871 163 152 145
-0.04513 0.35725 -0.90837 159 148 142
-0.04445 0.35818 -0.90771 148 145 133
-0.04372 0.35825 -0.90674 134 133 121
-0.04296 0.35833 -0.90615 114 115 104
-0.04246 0.35836 -0.90289 97 98 92
0.00310 0.36333 -0.87252 71 80 98
0.00316 0.36252 -0.87245 69 75 92
0.11462 0.37642 -0.89597 126 122 103
0.11378 0.37533 -0.89628 123 119 97
0.11470 0.37543 -0.89589 120 117 95
0.11753 0.37679 -0.89885 132 129 108
0.12040 0.37714 -0.90163 135 132 110
0.12141 0.37623 -0.90115 126 122 100
0.09415 0.37337 -0.82391 133 134 122
0.09348 0.37250 -0.82416 133 133 118
0.09488 0.37345 -0.82360 143 144 130
0.09718 0.37374 -0.82551 155 157 141
-0.04427 0.35735 -0.90889 151 146 137
-0.04351 0.35743 -0.90824 136 137 125
-0.04265 0.35753 -0.90871 117 117 107
-0.04209 0.35758 -0.90596 100 99 95
0.09353 0.37334 -0.94273 162 165 147
0.09445 0.37454 -0.94239 160 164 140
0.09454 0.37345 -0.94230 163 162 145
0.09442 0.37261 -0.82415 135 136 122
0.09375 0.37174 -0.82440 133 133 118
0.09515 0.37269 -0.82384 143 144 131
-0.04507 0.35640 -0.90833 158 150 142
-0.04585 0.35631 -0.90866 162 153 145
-0.04579 0.35546 -0.90860 162 156 145
-0.04424 0.35649 -0.90846 151 146 136
-0.04346 0.35658 -0.90806 137 135 123
-0.04253 0.35669 -0.90916 118 117 110
-0.04184 0.35676 -0.90782 101 99 100
0.09312 0.37219 -0.94158 165 169 152
0.09320 0.37110 -0.94149 165 170 151
0.09358 0.37223 -0.93999 164 164 147
0.09450 0.37343 -0.93965 162 160 144
0.09458 0.37234 -0.93956 164 160 144
0.09466 0.37126 -0.93948 163 162 146
-0.04501 0.35554 -0.90815 159 153 143
-0.04573 0.35461 -0.90842 162 157 145
-0.04417 0.35564 -0.90839 152 146 135
-0.04338 0.35573 -0.90813 139 133 122
-0.04245 0.35583 -0.90928 119 117 109
-0.04156 0.35593 -0.90992 101 100 98
0.09353 0.37115 -0.94481 164 168 149
0.09261 0.36994 -0.94516 162 164 145
0.09362 0.37005 -0.94472 162 165 148
0.09463 0.37016 -0.94429 163 166 150
-0.04493 0.35469 -0.90821 160 153 143
-0.04565 0.35376 -0.90848 162 157 145
-0.04411 0.35479 -0.90829 153 146 135
-0.04324 0.35488 -0.90882 140 134 122
-0.04219 0.35500 -0.91124 120 118 107
-0.04123 0.35510 -0.91257 102 101 94
-0.03498 0.35580 -0.90854 62 61 60
-0.03571 0.35485 -0.90881 59 59 60
-0.04487 0.35384 -0.90813 158 153 144
-0.04559 0.35290 -0.90840 163 155 145
-0.04405 0.35393 -0.90815 151 146 138
-0.04310 0.35403 -0.90958 140 135 127
-0.04195 0.35415 -0.91295 120 119 110
-0.04097 0.35425 -0.91446 104 102 92
-0.04030 0.35433 -0.91276 92 87 78
-0.03966 0.35441 -0.91090 80 75 68
-0.03486 0.35494 -0.90889 61 61 61
-0.03559 0.35399 -0.90917 58 58 58
-0.03380 0.35505 -0.91071 73 71 67
-0.03277 0.35516 -0.91222 88 85 76
-0.04184 0.35328 -0.91339 122 121 110
-0.04087 0.35338 -0.91469 104 102 89
-0.04017 0.35347 -0.91336 93 89 77
-0.03943 0.35355 -0.91241 82 76 71
-0.03871 0.35364 -0.91129 73 67 69
-0.03791 0.35373 -0.91095 67 65 68
-0.03483 0.35407 -0.90849 60 61 61
-0.03556 0.35312 -0.90877 58 57 58
-0.03382 0.35418 -0.90993 70 70 67
-0.03283 0.35428 -0.91108 86 83 77
0.00553 0.35855 -0.89327 137 135 116
0.00480 0.35760 -0.89355 146 141 121
0.06074 0.36542 -0.74415 174 171 152
-0.03886 0.35277 -0.90918 72 70 71
-0.03799 0.35199 -0.90877 68 66 66
-0.03806 0.35285 -0.90885 67 65 66
-0.03733 0.35380 -0.90858 63 61 64
-0.03726 0.35294 -0.90851 63 61 63
-0.03720 0.35208 -0.90844 64 62 65
-0.03486 0.35321 -0.90763 59 61 59
-0.03559 0.35226 -0.90791 57 58 58
-0.03390 0.35330 -0.90861 68 70 67
-0.03297 0.35340 -0.90938 84 82 76
-0.00716 0.35646 -0.87578 140 135 110
-0.00784 0.35556 -0.87604 132 130 101
-0.00635 0.35573 -0.87540 144 140 115
-0.00499 0.35667 -0.87802 144 136 114
-0.00493 0.35585 -0.87796 146 136 116
0.00611 0.35772 -0.89522 137 135 116
0.00537 0.35676 -0.89550 144 141 123
-0.03883 0.35190 -0.90876 72 71 71
-0.03884 0.35105 -0.90795 72 72 71
0.12056 0.36812 -0.88881 131 131 113
0.12155 0.36724 -0.88834 134 131 117
-0.04042 0.35002 -0.90791 91 88 84
-0.03966 0.35011 -0.90735 80 79 76
-0.03887 0.35019 -0.90694 73 71 72
-0.03804 0.35028 -0.90697 68 64 67
-0.03506 0.35064 -0.90407 60 60 64
-0.03578 0.34970 -0.90434 59 60 59
-0.03500 0.34979 -0.90400 60 60 62
-0.03437 0.35073 -0.90299 68 67 71
-0.03359 0.35081 -0.90259 82 78 76
0.12111 0.36718 -0.88948 130 128 112
-0.04047 0.34917 -0.90675 91 90 83
-0.03973 0.34926 -0.90596 81 79 74
-0.03891 0.34935 -0.90587 75 71 70
-0.03806 0.34858 -0.90546 71 69 68
-0.03806 0.34943 -0.90617 70 66 67
-0.03715 0.34951 -0.90691 66 63 61
-0.03642 0.35045 -0.90663 60 59 57
-0.03635 0.34960 -0.90657 62 61 58
-0.03438 0.34988 -0.90230 66 64 68
-0.03509 0.34895 -0.90257 60 60 62
-0.03366 0.34997 -0.90145 80 76 74
-0.03279 0.35005 -0.90176 93 84 77
0.09298 0.36152 -0.98418 153 156 135
0.09179 0.36259 -0.98475 151 152 133
0.09188 0.36140 -0.98466 151 152 132
0.09197 0.36021 -0.98457 150 153 134
0.09289 0.36272 -0.98428 153 155 136
0.09399 0.36284 -0.98380 155 157 138
0.09399 0.36164 -0.98348 157 160 139
0.09500 0.36296 -0.98310 155 157 139
0.09519 0.36057 -0.98292 162 165 147
0.09483 0.36175 -0.98239 159 161 144
0.09594 0.36187 -0.98192 159 161 146
0.09603 0.36068 -0.98182 161 165 146
0.09718 0.36227 -0.96703 165 168 150
0.09602 0.36331 -0.96758 162 166 149
0.09611 0.36216 -0.96749 165 168 149
0.09709 0.36343 -0.96712 162 165 150
0.09816 0.36355 -0.96666 164 166 150
0.09733 0.36234 -0.96452 166 169 152
0.09830 0.36360 -0.96415 165 168 152
0.10525 0.36319 -0.96235 168 171 154
0.10623 0.36447 -0.96198 164 167 149
0.10691 0.36335 -0.96315 166 169 152
0.10789 0.36463 -0.96278 165 168 148
0.10870 0.36352 -0.96419 167 170 153
0.10968 0.36480 -0.96382 167 170 152
0.10977 0.36364 -0.96373 170 172 158
0.10986 0.36248 -0.96364 172 174 161
0.11980 0.36606 -0.88903 117 112 95
0.11896 0.36497 -0.88934 118 111 93
0.11987 0.36507 -0.88895 115 109 91
0.12193 0.36625 -0.89057 124 121 106
0.12347 0.36640 -0.89115 130 130 114
0.12431 0.36749 -0.89083 134 130 116
0.12439 0.36650 -0.89076 133 132 116
-0.04016 0.34829 -0.90901 93 91 81
-0.03943 0.34839 -0.90808 81 80 71
-0.03866 0.34848 -0.90757 75 72 66
-0.03780 0.34771 -0.90716 69 70 70
-0.03699 0.34864 -0.90765 67 66 68
-0.03625 0.34874 -0.90685 62 62 63
-0.03545 0.34883 -0.90651 59 59 60
-0.03539 0.34797 -0.90644 59 59 58
-0.03434 0.34903 -0.90197 65 64 68
-0.03366 0.34913 -0.90083 79 77 74
-0.03284 0.34921 -0.90076 92 87 75
0.09408 0.36045 -0.98338 159 163 144
0.09527 0.35938 -0.98281 164 166 152
0.09730 0.36094 -0.97573 166 169 148
0.09612 0.36199 -0.97629 161 164 146
0.09621 0.36081 -0.97620 164 167 147
0.09720 0.36211 -0.97582 162 164 144
0.09829 0.36224 -0.97535 162 165 145
0.09723 0.36099 -0.97264 167 169 147
0.09734 0.36106 -0.96996 168 171 150
0.09738 0.36112 -0.96717 170 173 154
0.09753 0.36119 -0.96468 172 175 158
0.10392 0.36190 -0.96197 175 178 157
0.10572 0.36206 -0.96307 173 177 157
0.10742 0.36222 -0.96394 171 175 159
0.10922 0.36238 -0.96500 170 174 161
0.12323 0.36534 -0.89241 116 113 95
0.12239 0.36425 -0.89272 113 108 90
0.12497 0.36550 -0.89328 125 125 106
0.12590 0.36561 -0.89290 131 131 113
0.12674 0.36671 -0.89258 132 131 115
0.12682 0.36571 -0.89250 131 130 115
0.12690 0.36471 -0.89242 129 129 112
-0.04076 0.34733 -0.91060 110 105 95
-0.04010 0.34743 -0.90892 95 92 83
-0.03934 0.34753 -0.90825 82 81 74
-0.03857 0.34762 -0.90770 74 73 70
-0.03688 0.34778 -0.90798 65 66 68
-0.03607 0.34787 -0.90774 61 62 62
-0.03521 0.34710 -0.90733 59 59 57
-0.03468 0.34806 -0.90536 60 59 60
-0.03462 0.34721 -0.90530 60 58 56
-0.03417 0.34818 -0.90275 65 64 66
-0.03340 0.34827 -0.90234 78 77 73
-0.03264 0.34836 -0.90176 90 88 74
-0.00183 0.35149 -0.90101 132 130 109
-0.00271 0.35228 -0.90143 134 129 110
-0.00264 0.35140 -0.90136 133 128 110
-0.00257 0.35052 -0.90129 131 127 104
-0.00190 0.35237 -0.90108 134 130 109
-0.00108 0.35246 -0.90073 137 132 108
-0.00115 0.35158 -0.90005 138 134 112
-0.00041 0.35255 -0.89977 144 138 110
-0.00034 0.35167 -0.89970 144 139 114
-0.00027 0.35079 -0.89963 142 139 114
0.01556 0.35300 -0.91152 61 69 86
0.01649 0.35217 -0.91108 52 65 90
0.09394 0.35924 -0.98274 162 164 151
0.09514 0.35817 -0.98217 166 168 154
0.09659 0.35958 -0.97978 163 170 149
0.09549 0.35946 -0.98025 163 169 149
0.09558 0.35827 -0.98016 166 171 153
0.09649 0.36077 -0.97987 162 166 147
0.09720 0.35968 -0.97818 165 171 151
0.09746 0.35976 -0.97581 169 172 154
0.09750 0.35983 -0.97294 171 173 155
0.09747 0.35990 -0.96996 174 177 158
0.09746 0.35997 -0.96707 177 180 164
0.09771 0.36005 -0.96479 179 182 168
0.10418 0.36076 -0.96223 181 186 165
0.10601 0.36092 -0.96341 178 184 165
0.10768 0.36107 -0.96420 179 184 170
0.10942 0.36122 -0.96514 178 181 168
0.11125 0.36138 -0.96624 175 178 162
0.12467 0.36444 -0.89447 110 107 88
0.12382 0.36333 -0.89479 112 107 88
0.12475 0.36343 -0.89439 108 104 87
0.12641 0.36459 -0.89534 116 116 97
-0.04066 0.34646 -0.91092 112 105 99
-0.03996 0.34656 -0.90954 97 92 86
-0.03918 0.34665 -0.90909 84 81 77
-0.03841 0.34674 -0.90852 74 73 71
-0.03755 0.34682 -0.90876 69 69 69
-0.03671 0.34691 -0.90883 65 65 65
-0.03584 0.34613 -0.90842 62 60 60
-0.03590 0.34699 -0.90862 61 61 59
-0.03503 0.34622 -0.90820 60 58 58
-0.03398 0.34731 -0.90375 66 63 58
-0.03470 0.34637 -0.90402 60 58 56
-0.03321 0.34740 -0.90324 79 76 67
-0.03240 0.34749 -0.90310 91 86 76
-0.03155 0.34757 -0.90324 97 93 80
-0.00173 0.35061 -0.90109 130 128 102
-0.00247 0.34964 -0.90137 129 126 104
-0.00166 0.34973 -0.90102 129 125 104
-0.00111 0.35070 -0.89989 137 134 108
-0.00022 0.34991 -0.89948 141 136 115
0.01596 0.35207 -0.91263 57 66 83
0.01689 0.35124 -0.91218 52 64 88
0.09364 0.35804 -0.98169 162 165 152
0.09483 0.35697 -0.98113 167 170 157
0.09647 0.35838 -0.97920 166 174 153
0.09710 0.35849 -0.97766 169 176 157
0.09745 0.35858 -0.97547 172 176 161
0.09749 0.35866 -0.97263 175 178 163
0.09741 0.35873 -0.96954 179 182 165
0.09741 0.35881 -0.96668 183 186 171
0.09777 0.35890 -0.96463 185 189 175
0.10409 0.35960 -0.96178 186 193 174
0.10525 0.35857 -0.96123 189 198 179
0.10598 0.35976 -0.96307 183 193 176
0.10714 0.35872 -0.96252 188 196 179
0.10774 0.35991 -0.96404 184 192 177
0.10943 0.36006 -0.96488 184 187 175
0.11124 0.36021 -0.96593 180 184 170
0.12770 0.36366 -0.89714 109 107 93
0.12684 0.36254 -0.89746 111 105 89
0.12777 0.36264 -0.89706 108 102 91
-0.04050 0.34558 -0.91170 114 106 98
-0.03978 0.34568 -0.91059 100 93 84
-0.03900 0.34577 -0.91009 86 82 74
-0.03821 0.34586 -0.90966 75 72 68
-0.03736 0.34594 -0.90980 70 69 67
-0.03653 0.34603 -0.90970 65 64 64
-0.03567 0.34525 -0.90929 62 59 59
-0.03380 0.34645 -0.90458 66 62 55
-0.03452 0.34550 -0.90486 59 58 58
-0.03306 0.34654 -0.90380 78 74 64
-0.03223 0.34662 -0.90385 92 85 77
-0.03143 0.34671 -0.90351 98 92 82
-0.03038 0.34677 -0.90513 106 99 86
-0.00128 0.34983 -0.89875 135 130 110
-0.00203 0.34886 -0.89902 129 124 107
-0.00041 0.34904 -0.89833 141 136 115
-0.00030 0.35013 -0.89162 133 129 107
-0.00109 0.35004 -0.89197 137 134 111
0.00043 0.35108 -0.89135 131 126 106
0.00049 0.35022 -0.89128 131 125 104
0.00056 0.34936 -0.89122 130 125 107
0.00849 0.35071 -0.90179 134 134 113
0.00773 0.34972 -0.90207 140 134 115
0.00997 0.35079 -0.90396 110 112 98
0.01228 0.35087 -0.90920 85 86 88
0.01379 0.35096 -0.91135 69 76 85
0.01472 0.35105 -0.91123 63 72 84
0.08652 0.35610 -0.98290 145 148 134
0.08551 0.35479 -0.98327 142 145 130
0.09296 0.35682 -0.97977 162 166 153
0.09739 0.35756 -0.96920 182 188 168
0.09739 0.35765 -0.96633 186 192 176
0.09784 0.35774 -0.96451 189 195 180
0.10959 0.35889 -0.96494 188 193 180
0.10861 0.35761 -0.96531 189 198 177
0.10968 0.35773 -0.96485 190 197 180
0.11134 0.35904 -0.96587 184 191 178
-0.04034 0.34469 -0.91264 116 110 95
-0.03959 0.34479 -0.91177 100 95 79
-0.03880 0.34488 -0.91129 88 83 70
-0.03802 0.34498 -0.91071 77 73 64
-0.03716 0.34420 -0.91029 71 67 64
-0.03719 0.34506 -0.91071 71 68 64
-0.03632 0.34428 -0.91030 67 65 66
-0.03639 0.34515 -0.91034 66 64 63
-0.03368 0.34558 -0.90497 63 61 57
-0.03440 0.34464 -0.90525 58 58 59
-0.03293 0.34568 -0.90430 75 72 64
-0.03210 0.34576 -0.90425 89 85 73
-0.03131 0.34585 -0.90390 98 92 77
-0.03030 0.34591 -0.90517 106 98 84
-0.00078 0.34918 -0.89294 139 134 113
-0.00151 0.34823 -0.89321 140 135 114
-0.00072 0.34831 -0.89287 139 133 113
-0.00046 0.34928 -0.89059 133 127 108
0.00039 0.34851 -0.89018 129 126 106
0.00901 0.34980 -0.90349 134 132 113
0.00825 0.34881 -0.90377 137 135 115
0.01029 0.34989 -0.90482 111 112 100
0.01226 0.34996 -0.90879 85 87 93
0.01360 0.35004 -0.91029 69 72 88
0.01446 0.35013 -0.90993 62 69 86
0.01538 0.34931 -0.90949 52 61 80
0.01552 0.35023 -0.91035 53 62 83
0.01638 0.35032 -0.90998 50 61 86
0.01645 0.34940 -0.90991 48 59 85
0.08565 0.35489 -0.98040 144 148 134
0.09327 0.35574 -0.97713 167 171 157
0.09444 0.35468 -0.97657 170 176 163
0.11135 0.35787 -0.96561 188 196 180
0.11036 0.35658 -0.96598 190 198 182
0.11144 0.35670 -0.96552 189 197 182
0.11252 0.35682 -0.96505 188 196 180
0.11978 0.35890 -0.95893 169 177 155
0.11987 0.35774 -0.95884 175 178 158
0.12099 0.35903 -0.95873 169 172 154
-0.03344 0.34469 -0.90629 61 60 61
-0.03417 0.34375 -0.90657 59 59 60
-0.03275 0.34480 -0.90507 72 72 65
-0.03197 0.34489 -0.90469 86 84 71
-0.03125 0.34499 -0.90375 97 92 75
-0.03035 0.34506 -0.90428 104 98 82
0.00929 0.34890 -0.90422 133 130 112
0.00853 0.34790 -0.90451 133 135 114
0.01033 0.34898 -0.90467 111 111 103
0.01214 0.34905 -0.90797 87 87 94
0.01337 0.34913 -0.90907 67 71 87
0.01422 0.34922 -0.90871 60 67 83
0.01514 0.34840 -0.90827 51 60 78
0.08367 0.35358 -0.97832 144 146 130
0.08250 0.35463 -0.97888 141 144 129
0.08259 0.35346 -0.97879 141 144 127
0.08445 0.35370 -0.97709 145 150 135
0.08562 0.35265 -0.97654 148 155 142
0.08550 0.35382 -0.97658 147 155 140
0.08667 0.35277 -0.97602 152 157 145
0.08875 0.35418 -0.97520 159 163 146
0.08767 0.35406 -0.97566 156 160 143
0.09001 0.35430 -0.97517 162 166 149
0.09132 0.35443 -0.97526 165 169 154
0.09250 0.35337 -0.97471 167 174 162
0.09274 0.35455 -0.97558 168 173 160
0.11696 0.35739 -0.96083 180 186 173
0.11784 0.35751 -0.95999 177 181 166
0.11900 0.35647 -0.95943 174 178 160
0.12033 0.35784 -0.95720 173 176 159
0.11935 0.35657 -0.95756 175 178 158
0.12042 0.35669 -0.95710 175 178 158
0.12149 0.35680 -0.95664 168 175 159
0.12146 0.35796 -0.95686 167 173 158
0.12262 0.35693 -0.95631 163 169 153
-0.03340 0.34384 -0.90596 60 60 62
-0.03413 0.34289 -0.90623 59 59 59
-0.03274 0.34395 -0.90458 70 70 68
-0.03194 0.34404 -0.90428 84 82 74
-0.03124 0.34415 -0.90329 95 90 77
-0.03037 0.34422 -0.90354 102 98 82
0.00936 0.34800 -0.90415 130 129 112
0.00860 0.34700 -0.90444 132 133 110
0.01026 0.34809 -0.90405 111 112 103
0.01172 0.34815 -0.90606 86 89 93
0.01290 0.34823 -0.90698 64 71 82
0.01374 0.34833 -0.90662 57 66 78
0.01466 0.34751 -0.90618 50 60 78
0.08174 0.35229 -0.97632 142 145 128
0.08058 0.35333 -0.97687 138 140 124
0.08067 0.35217 -0.97678 139 141 125
0.08183 0.35112 -0.97623 143 145 132
0.08291 0.35124 -0.97576 145 148 136
0.08255 0.35241 -0.97519 145 148 133
0.08372 0.35136 -0.97464 146 152 138
0.08340 0.35252 -0.97418 147 152 138
0.08706 0.35289 -0.97387 157 161 147
0.08607 0.35160 -0.97424 152 158 149
0.08715 0.35172 -0.97377 157 161 150
0.08821 0.35301 -0.97358 162 164 151
0.08937 0.35196 -0.97303 166 171 153
0.08944 0.35313 -0.97350 164 169 154
0.09060 0.35208 -0.97294 167 172 156
-0.03351 0.34302 -0.90450 60 61 61
-0.03202 0.34322 -0.90310 83 81 77
-0.03126 0.34331 -0.90258 94 88 79
-0.03042 0.34339 -0.90261 102 97 82
-0.00260 0.34645 -0.89159 130 130 108
-0.00345 0.34721 -0.89199 129 125 103
-0.00339 0.34636 -0.89193 127 127 100
-0.00187 0.34739 -0.89131 139 134 118
-0.00180 0.34653 -0.89125 138 134 118
-0.00174 0.34568 -0.89118 138 134 116
-0.00130 0.34664 -0.88970 140 132 115
-0.00136 0.34749 -0.88977 139 133 115
-0.00057 0.34758 -0.88943 135 130 109
-0.00054 0.34673 -0.88923 135 128 106
0.00018 0.34767 -0.88895 127 126 104
0.00031 0.34597 -0.88882 130 124 96
0.00041 0.34681 -0.88955 129 125 98
0.00113 0.34775 -0.88928 125 127 102
0.00120 0.34690 -0.88921 126 126 95
0.01330 0.34730 -0.90813 66 73 80
0.01414 0.34740 -0.90776 55 66 77
0.01506 0.34658 -0.90733 48 58 76
0.08049 0.35101 -0.97600 139 141 126
0.07932 0.35205 -0.97655 135 138 123
0.07941 0.35089 -0.97646 135 138 121
0.07950 0.34973 -0.97637 135 137 118
0.08382 0.35149 -0.97178 148 155 143
0.08284 0.35021 -0.97215 146 151 138
0.08800 0.35184 -0.97278 163 166 151
0.08702 0.35056 -0.97315 156 162 149
0.08809 0.35068 -0.97269 163 166 152
0.08916 0.35080 -0.97223 167 170 155
-0.03432 0.34210 -0.90406 56 56 56
-0.03518 0.34286 -0.90446 59 58 57
-0.03511 0.34201 -0.90440 57 57 54
-0.03504 0.34116 -0.90433 56 57 54
-0.03426 0.34124 -0.90399 54 54 51
-0.03365 0.34221 -0.90276 58 59 59
-0.03293 0.34232 -0.90192 67 68 67
-0.03218 0.34241 -0.90130 81 79 76
-0.03138 0.34250 -0.90107 92 88 80
-0.03057 0.34258 -0.90096 102 96 83
-0.00304 0.34548 -0.89307 127 126 100
-0.00391 0.34625 -0.89348 128 126 100
-0.00384 0.34539 -0.89342 127 124 97
-0.00377 0.34453 -0.89335 124 123 93
-0.00266 0.34560 -0.89097 131 130 108
-0.00180 0.34483 -0.89056 137 131 114
-0.00125 0.34579 -0.88957 138 131 110
-0.00039 0.34502 -0.88916 133 125 103
-0.00054 0.34588 -0.88889 134 126 102
0.00031 0.34512 -0.88848 129 123 97
0.07965 0.34999 -0.97039 142 144 133
0.08040 0.35011 -0.96916 146 148 137
-0.03382 0.34142 -0.90081 57 56 53
-0.03454 0.34049 -0.90108 55 54 49
-0.03308 0.34152 -0.90016 67 64 60
-0.03236 0.34162 -0.89933 82 78 72
-0.03158 0.34171 -0.89903 93 89 80
-0.03075 0.34179 -0.89908 102 96 82
-0.00321 0.34464 -0.89200 125 123 97
-0.00393 0.34369 -0.89227 124 124 91
-0.00314 0.34378 -0.89193 123 122 93
-0.00283 0.34477 -0.88985 129 126 106
-0.00133 0.34495 -0.88886 138 129 109
-0.00127 0.34410 -0.88879 138 129 113
0.08093 0.34795 -0.99304 127 126 109
0.08195 0.34928 -0.99266 128 131 111
0.08204 0.34807 -0.99256 128 129 112
0.07855 0.34886 -0.96732 142 142 128
0.07759 0.34761 -0.96768 139 139 121
0.07864 0.34773 -0.96723 142 141 123
0.07949 0.34898 -0.96659 145 146 133
0.08106 0.34909 -0.96741 146 151 136
0.12711 0.35382 -0.95654 158 162 141
0.12594 0.35486 -0.95709 161 164 144
0.12603 0.35370 -0.95700 162 165 148
0.12612 0.35254 -0.95691 161 166 150
0.12702 0.35498 -0.95663 155 159 136
0.12809 0.35510 -0.95617 153 156 132
0.12796 0.35394 -0.95566 153 157 134
-0.04500 0.33906 -0.91140 162 155 146
-0.04586 0.33983 -0.91181 164 158 152
-0.04579 0.33897 -0.91174 164 159 153
-0.04573 0.33811 -0.91167 164 159 149
-0.04493 0.33820 -0.91133 161 157 144
-0.04418 0.33914 -0.91126 159 151 139
-0.04332 0.33836 -0.91085 154 149 133
-0.03790 0.34022 -0.90034 71 67 68
-0.03708 0.34029 -0.90036 65 61 63
-0.03637 0.34122 -0.90009 61 60 59
-0.03630 0.34038 -0.90007 60 59 59
-0.03546 0.33962 -0.89967 56 54 51
-0.03406 0.34067 -0.89829 56 54 52
-0.03477 0.33974 -0.89856 56 55 53
-0.03331 0.34076 -0.89779 66 63 58
-0.03254 0.34085 -0.89737 82 80 69
-0.03172 0.34092 -0.89737 92 91 76
-0.03081 0.34097 -0.89806 100 96 79
-0.02988 0.34102 -0.89878 109 104 86
-0.02904 0.34026 -0.89838 119 109 94
-0.00234 0.34404 -0.88788 136 130 112
-0.00149 0.34328 -0.88748 137 130 113
0.08025 0.34677 -0.99090 125 122 104
0.10587 0.35052 -0.96060 193 199 183
0.10694 0.35064 -0.96014 190 196 181
0.12184 0.35592 -0.87600 112 111 97
0.12254 0.35602 -0.87535 119 120 104
0.12335 0.35707 -0.87505 123 123 107
0.12342 0.35612 -0.87497 121 122 104
-0.03986 0.33900 -0.90416 107 100 88
-0.03932 0.33918 -0.90159 91 86 79
-0.03862 0.33930 -0.90054 78 74 74
-0.03794 0.33942 -0.89933 71 66 66
-0.03728 0.33954 -0.89801 67 61 63
-0.03648 0.33962 -0.89791 61 57 57
-0.03564 0.33887 -0.89751 56 52 54
-0.03423 0.33990 -0.89637 57 55 56
-0.03494 0.33898 -0.89664 56 55 56
-0.03334 0.33995 -0.89698 65 63 62
-0.03257 0.34003 -0.89663 81 79 71
-0.03170 0.34009 -0.89697 91 90 75
-0.03076 0.34014 -0.89784 98 96 79
-0.02970 0.34015 -0.89958 109 103 87
-0.00310 0.34311 -0.88800 128 123 101
-0.00381 0.34218 -0.88827 126 121 95
-0.00225 0.34235 -0.88760 135 128 112
-0.00209 0.34317 -0.88863 135 129 111
-0.00124 0.34241 -0.88823 136 129 112
0.10615 0.34937 -0.96091 194 203 185
0.10518 0.34810 -0.96128 194 202 186
0.10624 0.34822 -0.96082 195 203 188
0.10752 0.34948 -0.96109 191 198 184
0.10850 0.35075 -0.96072 189 195 181
0.10859 0.34960 -0.96063 188 195 182
0.12187 0.35497 -0.87585 107 105 89
0.12106 0.35392 -0.87615 103 101 91
0.12194 0.35402 -0.87577 104 101 86
0.12281 0.35507 -0.87557 114 114 97
0.12326 0.35516 -0.87456 119 120 103
0.12407 0.35621 -0.87425 122 124 106
0.12414 0.35526 -0.87418 121 122 107
0.12422 0.35431 -0.87410 120 120 107
-0.03991 0.33820 -0.90298 106 103 89
-0.03942 0.33841 -0.89994 90 90 80
-0.03877 0.33854 -0.89851 78 76 73
-0.03810 0.33866 -0.89728 71 67 67
-0.03742 0.33878 -0.89611 68 62 64
-0.03422 0.33908 -0.89582 58 57 59
-0.03493 0.33816 -0.89609 55 54 55
-0.03341 0.33915 -0.89583 66 64 64
-0.03258 0.33922 -0.89594 82 78 73
-0.03169 0.33927 -0.89651 93 89 78
-0.03071 0.33930 -0.89768 99 94 82
-0.00343 0.34232 -0.88619 129 122 105
-0.00415 0.34139 -0.88646 126 120 102
-0.00259 0.34156 -0.88579 134 128 113
0.07937 0.34442 -0.98790 120 120 99
0.07836 0.34311 -0.98828 115 117 99
0.07946 0.34323 -0.98781 119 120 98
0.08056 0.34335 -0.98734 123 122 101
0.07500 0.34561 -0.95745 142 142 123
0.07389 0.34660 -0.95798 140 139 121
0.07398 0.34550 -0.95789 140 137 119
0.09389 0.34616 -0.97919 167 173 156
0.09607 0.34625 -0.98127 170 177 159
0.10806 0.34832 -0.96194 191 200 186
0.10708 0.34704 -0.96230 194 202 188
0.10815 0.34716 -0.96185 192 201 189
0.11570 0.34915 -0.95904 177 187 173
0.11454 0.35019 -0.95959 179 189 181
0.11463 0.34903 -0.95950 180 187 177
0.11472 0.34787 -0.95941 181 188 173
0.11561 0.35031 -0.95913 177 189 177
0.11686 0.34811 -0.95849 176 183 166
0.12215 0.35411 -0.87440 110 107 91
0.12134 0.35306 -0.87470 104 101 86
0.12243 0.35420 -0.87314 117 116 102
-0.03963 0.33726 -0.90500 106 104 89
-0.03942 0.33760 -0.89924 91 91 79
-0.03886 0.33777 -0.89701 77 77 70
-0.03821 0.33790 -0.89560 69 67 65
-0.03738 0.33716 -0.89521 64 62 61
-0.03677 0.33810 -0.89424 63 58 60
-0.03594 0.33736 -0.89385 57 56 55
-0.03417 0.33825 -0.89565 58 57 57
-0.03488 0.33733 -0.89592 56 56 56
-0.03411 0.33742 -0.89559 57 57 56
-0.03334 0.33832 -0.89585 66 64 60
-0.03243 0.33836 -0.89655 81 79 69
0.07489 0.34451 -0.95686 139 141 127
0.09359 0.34500 -0.97816 167 176 162
0.09582 0.34507 -0.98036 172 180 163
0.11792 0.34795 -0.96318 177 185 169
0.11693 0.34666 -0.96355 180 188 173
0.12139 0.35315 -0.87309 106 102 88
0.12059 0.35211 -0.87339 105 101 84
0.12146 0.35221 -0.87301 104 101 85
0.12170 0.35325 -0.87188 111 110 97
-0.03966 0.33646 -0.90399 107 104 90
-0.03948 0.33681 -0.89802 92 92 79
-0.03904 0.33704 -0.89477 77 79 67
-0.03837 0.33716 -0.89356 68 68 62
-0.03324 0.33747 -0.89603 65 63 57
-0.03395 0.33655 -0.89630 59 58 58
-0.03218 0.33745 -0.89791 80 76 66
-0.03124 0.33749 -0.89878 92 88 77
-0.00385 0.34072 -0.88369 128 123 107
-0.00462 0.34064 -0.88402 125 119 103
-0.00456 0.33980 -0.88396 125 120 102
-0.00308 0.34081 -0.88336 133 130 111
0.09593 0.34388 -0.98030 174 183 165
0.09712 0.34282 -0.97974 184 193 175
0.12047 0.35230 -0.86989 106 105 90
0.11968 0.35127 -0.87018 104 101 83
-0.03935 0.33549 -0.90629 108 105 95
-0.03937 0.33596 -0.89846 91 91 82
-0.03903 0.33624 -0.89415 77 78 70
-0.03833 0.33635 -0.89330 69 69 65
-0.03776 0.33652 -0.89134 64 63 62
-0.03700 0.33660 -0.89102 61 59 56
-0.03295 0.33655 -0.89768 64 63 61
-0.03193 0.33655 -0.89925 78 76 71
-0.03098 0.33657 -0.90016 91 87 79
-0.00381 0.33989 -0.88352 127 122 102
-0.00452 0.33897 -0.88379 125 120 102
-0.00375 0.33906 -0.88345 124 120 100
0.11940 0.35136 -0.86813 104 102 85
0.11861 0.35034 -0.86843 105 101 82
0.11947 0.35043 -0.86806 105 101 82
-0.03937 0.33468 -0.90534 107 106 99
-0.03895 0.33541 -0.89425 78 78 74
-0.03834 0.33556 -0.89259 70 70 68
-0.03783 0.33576 -0.89016 65 64 63
-0.03709 0.33585 -0.88966 62 60 56
-0.03640 0.33675 -0.88940 59 56 53
-0.03634 0.33593 -0.88933 59 58 51
-0.03628 0.33512 -0.88927 58 58 53
-0.03358 0.33559 -0.89865 58 57 55
-0.03442 0.33634 -0.89905 59 56 55
-0.03435 0.33550 -0.89899 57 56 52
-0.03429 0.33466 -0.89892 56 57 53
-0.03351 0.33475 -0.89858 57 57 56
-0.03282 0.33568 -0.89815 63 63 62
-0.03185 0.33569 -0.89931 77 76 73
-0.03098 0.33575 -0.89963 89 86 78
-0.03983 0.33360 -0.90821 125 120 113
-0.03923 0.33379 -0.90604 109 106 98
-0.03924 0.33429 -0.89832 93 91 83
-0.03893 0.33460 -0.89382 81 79 73
-0.03827 0.33474 -0.89258 72 71 66
-0.03777 0.33495 -0.89000 66 66 61
-0.03702 0.33503 -0.88970 61 61 57
-0.03620 0.33430 -0.88931 58 58 56
-0.03269 0.33482 -0.89856 63 62 62
-0.03341 0.33389 -0.89883 57 57 55
-0.03171 0.33482 -0.89978 77 73 69
-0.03087 0.33488 -0.89989 89 83 74
-0.00237 0.33820 -0.88534 128 124 100
-0.00153 0.33745 -0.88494 130 127 106
-0.03910 0.33341 -0.89891 96 91 84
-0.03873 0.33371 -0.89493 82 79 77
-0.03811 0.33387 -0.89333 72 70 67
-0.03761 0.33408 -0.89082 66 66 62
-0.03686 0.33417 -0.89044 62 62 60
-0.03604 0.33343 -0.89005 59 56 53
-0.03271 0.33401 -0.89789 63 62 62
-0.03177 0.33403 -0.89877 75 71 68
-0.03096 0.33410 -0.89867 89 83 77
-0.00256 0.33717 -0.88787 122 117 99
-0.00341 0.33793 -0.88828 124 119 101
-0.00334 0.33708 -0.88821 123 117 98
-0.00328 0.33623 -0.88814 121 116 97
-0.00249 0.33632 -0.88780 119 115 97
-0.00177 0.33725 -0.88753 126 122 103
-0.00092 0.33649 -0.88713 128 125 105
-0.03948 0.33176 -0.91008 126 121 108
-0.03899 0.33202 -0.90684 111 107 94
-0.03884 0.33247 -0.90063 97 92 85
-0.03788 0.33296 -0.89475 73 70 67
-0.03736 0.33317 -0.89231 67 63 61
-0.03654 0.33243 -0.89192 63 57 57
-0.03663 0.33327 -0.89179 63 59 59
-0.03580 0.33253 -0.89140 59 54 52
-0.03366 0.33320 -0.89625 55 56 53
-0.03450 0.33395 -0.89664 57 57 54
-0.03443 0.33311 -0.89658 56 55 50
-0.03437 0.33227 -0.89651 54 52 49
-0.03282 0.33325 -0.89647 62 61 61
-0.03197 0.33330 -0.89671 75 71 70
-0.03115 0.33337 -0.89671 90 84 79
-0.00134 0.33633 -0.88904 125 121 103
-0.00206 0.33538 -0.88931 118 115 95
-0.00048 0.33556 -0.88863 127 123 104
-0.03934 0.33084 -0.91079 128 122 117
-0.03863 0.33099 -0.90956 112 109 103
-0.03867 0.33157 -0.90150 97 94 90
-0.03811 0.33178 -0.89924 84 81 78
-0.03764 0.33203 -0.89627 74 70 66
-0.03370 0.33241 -0.89537 54 54 53
-0.03440 0.33149 -0.89564 54 54 52
-0.03363 0.33158 -0.89530 54 53 54
-0.03287 0.33247 -0.89548 59 59 59
-0.03205 0.33253 -0.89556 72 70 68
-0.03126 0.33261 -0.89535 87 83 76
0.00015 0.33644 -0.87724 125 125 104
-0.00067 0.33718 -0.87763 124 124 99
-0.00055 0.33553 -0.87750 123 119 101
0.00009 0.33726 -0.87730 125 126 106
0.00085 0.33734 -0.87698 131 128 111
0.00091 0.33652 -0.87691 130 128 109
-0.03981 0.32971 -0.91367 138 133 125
-0.04055 0.32875 -0.91395 143 138 123
-0.03901 0.32981 -0.91324 130 125 116
-0.03829 0.32995 -0.91210 114 111 102
-0.03803 0.33037 -0.90676 98 98 88
-0.03776 0.33077 -0.90172 84 83 76
-0.03730 0.33104 -0.89857 74 71 68
-0.03672 0.33124 -0.89657 67 63 63
-0.03607 0.33139 -0.89525 63 58 58
-0.03524 0.33064 -0.89485 58 58 56
0.00029 0.33559 -0.87747 126 122 102
-0.00041 0.33468 -0.87773 124 119 104
0.00035 0.33477 -0.87740 125 121 102
0.00112 0.33485 -0.87707 129 127 103
-0.03976 0.32885 -0.91339 138 135 119
-0.03896 0.32895 -0.91299 130 127 110
-0.03826 0.32911 -0.91160 115 114 95
-0.03796 0.32951 -0.90669 100 99 83
-0.03748 0.32980 -0.90352 85 83 74
-0.03636 0.33023 -0.89907 67 65 66
-0.03575 0.33041 -0.89734 61 60 60
-0.03491 0.32966 -0.89694 57 56 57
-0.04052 0.32790 -0.91349 143 139 122
-0.04139 0.32869 -0.91390 148 141 128
-0.04132 0.32782 -0.91383 148 142 126
-0.04126 0.32694 -0.91376 146 144 127
-0.04045 0.32703 -0.91342 141 140 124
-0.03973 0.32801 -0.91294 138 135 117
-0.03893 0.32810 -0.91251 130 127 108
-0.03821 0.32825 -0.91143 117 113 97
-0.03772 0.32854 -0.90823 101 98 87
-0.03720 0.32881 -0.90539 85 84 78
-0.03653 0.32897 -0.90398 73 73 68
-0.03597 0.32920 -0.90172 66 67 63
-0.03540 0.32941 -0.89959 60 60 58
0.00135 0.33372 -0.88103 124 121 101
0.00057 0.33363 -0.88137 123 119 101
0.00064 0.33280 -0.88130 119 120 96
-0.03969 0.32715 -0.91266 136 135 118
-0.04042 0.32619 -0.91294 142 140 122
-0.03889 0.32725 -0.91226 128 127 110
-0.03813 0.32737 -0.91146 115 113 100
-0.03751 0.32758 -0.90943 101 98 89
-0.03695 0.32783 -0.90700 86 86 78
-0.03627 0.32799 -0.90564 74 75 66
-0.03563 0.32818 -0.90400 66 68 58
-0.03905 0.32655 -0.91000 129 127 112
-0.03827 0.32665 -0.90946 116 114 103
-0.03740 0.32669 -0.90972 101 100 91
-0.03906 0.32574 -0.90920 132 126 111
-0.03832 0.32587 -0.90832 119 115 103
-0.03751 0.32595 -0.90808 100 100 92
0.01468 0.32959 -0.91037 95 95 86
0.01648 0.32945 -0.91350 74 74 72
-0.03903 0.32491 -0.90877 132 126 112
-0.03826 0.32501 -0.90817 118 116 102
-0.03741 0.32506 -0.90832 100 101 89
0.01303 0.32880 -0.90745 119 118 96
0.01226 0.32779 -0.90774 127 123 99
0.01507 0.32858 -0.91149 97 98 82
0.01713 0.32836 -0.91552 78 76 68
0.01793 0.32848 -0.91490 82 78 71
0.01889 0.32855 -0.91484 86 80 76
0.01983 0.32771 -0.91440 87 87 81
-0.03902 0.32409 -0.90819 131 126 112
-0.03824 0.32419 -0.90768 118 115 102
-0.03740 0.32424 -0.90777 101 100 88
0.01327 0.32783 -0.90800 120 118 93
0.01519 0.32763 -0.91161 101 99 80
0.01743 0.32736 -0.91628 83 78 68
0.01837 0.32651 -0.91583 85 84 78
0.01828 0.32746 -0.91582 85 80 75
0.01922 0.32662 -0.91537 87 88 77
0.01947 0.32748 -0.91660 88 86 79
0.02042 0.32663 -0.91615 88 87 77
-0.03905 0.32331 -0.90715 129 127 113
-0.03826 0.32340 -0.90683 117 115 104
-0.03743 0.32346 -0.90678 102 99 91
0.01236 0.32686 -0.90779 127 124 100
0.01144 0.32768 -0.90823 128 123 102
0.01152 0.32677 -0.90816 129 125 104
0.01159 0.32585 -0.90809 129 125 106
0.01243 0.32594 -0.90772 128 124 104
0.01332 0.32692 -0.90783 121 116 95
0.01532 0.32669 -0.91174 104 99 83
0.01758 0.32640 -0.91649 85 83 74
0.01852 0.32555 -0.91604 85 84 79
-0.03969 0.32229 -0.90828 135 131 120
-0.04042 0.32134 -0.90855 141 135 124
-0.03889 0.32237 -0.90800 128 126 114
-0.03812 0.32248 -0.90746 118 115 103
-0.03743 0.32265 -0.90618 103 99 88
-0.03669 0.32279 -0.90530 88 82 72
0.00171 0.32615 -0.89803 118 116 96
0.00083 0.32694 -0.89845 114 113 94
0.00090 0.32606 -0.89838 113 111 92
0.00097 0.32518 -0.89831 112 111 91
0.00246 0.32712 -0.89775 123 124 105
0.00262 0.32621 -0.89805 124 123 105
0.00343 0.32630 -0.89770 121 122 104
0.00350 0.32542 -0.89763 121 120 100
0.00726 0.32613 -0.90214 118 115 99
0.00643 0.32604 -0.90250 118 116 98
0.00650 0.32514 -0.90243 116 113 94
0.00850 0.32610 -0.90340 125 122 106
0.00934 0.32619 -0.90304 129 125 107
0.00941 0.32529 -0.90297 129 124 107
0.01328 0.32604 -0.90735 122 118 100
0.01250 0.32503 -0.90764 127 123 104
0.01529 0.32579 -0.91129 103 99 85
0.01758 0.32547 -0.91617 88 87 77
0.01853 0.32462 -0.91572 86 82 80
-0.03976 0.32154 -0.90696 136 131 121
-0.04048 0.32060 -0.90724 141 134 127
-0.03896 0.32163 -0.90663 129 125 114
-0.03814 0.32170 -0.90654 118 113 99
