ply
format ascii 1.0
element face 0
property list uchar int vertex_indices
element vertex 1063
property float x
property float y
property float z
property uchar diffuse_red
property uchar diffuse_green
property uchar diffuse_blue
end_header
0.01247 0.37376 -0.64817 163 154 139
0.01246 0.37419 -0.64823 163 156 140
0.01227 0.37326 -0.64790 163 150 139
0.01190 0.37279 -0.64803 165 151 144
0.01268 0.37287 -0.64765 155 142 133
0.01204 0.37311 -0.64710 157 144 132
0.01245 0.37272 -0.64685 154 142 132
0.01170 0.37265 -0.64725 161 147 139
0.01132 0.37219 -0.64738 164 150 143
0.01210 0.37227 -0.64701 154 142 131
0.00356 0.36816 -0.64201 194 181 164
0.01312 0.37055 -0.64880 158 145 140
0.01353 0.37015 -0.64855 153 141 132
0.01295 0.37006 -0.64855 156 147 138
0.01279 0.36958 -0.64832 158 146 134
0.01326 0.36964 -0.64821 153 139 130
0.01364 0.37011 -0.64808 154 142 133
0.01367 0.36925 -0.64796 153 139 125
0.01255 0.36908 -0.64801 157 143 130
0.01296 0.36869 -0.64776 155 131 120
0.01299 0.36913 -0.64786 152 138 125
0.01274 0.36870 -0.64812 156 137 125
0.01314 0.36830 -0.64787 152 137 120
0.01283 0.36829 -0.64814 155 140 127
0.01324 0.36789 -0.64789 150 137 116
0.01284 0.36785 -0.64807 154 140 127
0.01324 0.36746 -0.64782 150 139 121
0.01270 0.36738 -0.64787 149 140 123
0.01311 0.36699 -0.64762 146 137 121
0.01163 0.36612 -0.63757 145 130 119
0.01125 0.36648 -0.63781 134 121 107
0.01126 0.36608 -0.63775 135 124 111
0.01128 0.36567 -0.63770 137 124 114
0.01162 0.36652 -0.63763 145 130 116
0.01199 0.36656 -0.63745 153 138 122
0.01205 0.36617 -0.63744 152 139 125
0.01241 0.36661 -0.63732 160 145 130
0.01313 0.36638 -0.63791 159 145 130
0.01349 0.36683 -0.63779 163 148 134
0.01350 0.36642 -0.63773 161 149 134
0.01273 0.36726 -0.65075 183 169 152
0.01234 0.36678 -0.65088 185 172 156
0.01281 0.36722 -0.65024 167 156 137
0.01288 0.36718 -0.64972 158 147 129
0.01329 0.36678 -0.64947 158 147 131
0.01290 0.36706 -0.64857 156 146 136
0.01286 0.36699 -0.64794 150 141 128
0.01307 0.36692 -0.64701 151 145 121
0.01345 0.36739 -0.64688 157 148 131
0.01346 0.36696 -0.64682 157 145 131
0.01348 0.36653 -0.64676 155 147 138
0.01308 0.36691 -0.65103 180 167 153
0.01320 0.36688 -0.65055 166 154 143
0.01296 0.36676 -0.64972 159 150 137
0.01337 0.36636 -0.64947 157 145 130
0.01295 0.36663 -0.64854 156 146 131
0.01336 0.36624 -0.64829 146 135 123
0.01284 0.36655 -0.64785 149 140 126
0.01296 0.36652 -0.64739 147 142 126
0.01336 0.36613 -0.64714 152 145 130
0.01326 0.36654 -0.64712 151 146 133
0.01367 0.36615 -0.64687 153 148 134
0.01539 0.36606 -0.63929 165 150 134
0.01578 0.36568 -0.63905 168 151 133
0.01844 0.36880 -0.66625 205 195 181
0.01798 0.36924 -0.66653 206 195 185
0.01800 0.36876 -0.66646 206 195 184
0.01842 0.36928 -0.66631 206 196 182
0.01886 0.36933 -0.66610 206 195 181
0.01890 0.36836 -0.66597 201 189 175
0.01268 0.36631 -0.64996 165 151 140
0.01309 0.36591 -0.64971 158 149 132
0.01348 0.36621 -0.64783 150 140 128
0.01349 0.36578 -0.64777 153 139 133
0.01389 0.36582 -0.64758 155 145 134
0.01846 0.36832 -0.66618 203 190 176
0.01803 0.36779 -0.66633 204 192 178
0.01847 0.36784 -0.66611 202 191 175
0.01891 0.36788 -0.66590 200 188 173
0.01399 0.36421 -0.63931 151 138 121
0.01362 0.36376 -0.63943 144 132 115
0.01458 0.36430 -0.63932 156 144 128
0.01497 0.36393 -0.63908 160 149 134
0.01500 0.36398 -0.63964 156 144 128
0.01539 0.36360 -0.63940 161 149 133
0.01016 0.36352 -0.64704 160 149 132
0.01056 0.36314 -0.64680 159 148 128
0.01820 0.36466 -0.64686 127 117 99
0.01861 0.36427 -0.64661 120 107 100
0.01540 0.36365 -0.63992 157 146 126
0.01541 0.36324 -0.63986 158 147 125
0.01579 0.36327 -0.63968 162 149 134
0.00984 0.36317 -0.64840 187 173 162
0.00944 0.36356 -0.64865 189 175 162
0.00945 0.36313 -0.64859 191 177 167
0.00946 0.36270 -0.64853 190 175 164
0.00987 0.36313 -0.64784 179 166 154
0.01026 0.36317 -0.64765 165 153 139
0.01066 0.36278 -0.64740 159 147 132
0.01783 0.36414 -0.64644 127 113 110
0.01824 0.36375 -0.64619 121 105 98
0.00875 0.36244 -0.64663 177 163 151
0.01579 0.36290 -0.64014 158 146 126
0.01617 0.36294 -0.63995 163 149 132
0.01806 0.36341 -0.64764 145 132 121
0.01535 0.36247 -0.64072 145 137 119
0.01498 0.36201 -0.64085 139 129 115
0.01571 0.36251 -0.64052 152 141 123
0.01598 0.36252 -0.64024 158 144 128
0.01637 0.36214 -0.64000 161 149 132
0.01635 0.36256 -0.64004 163 149 132
0.01671 0.36301 -0.63992 166 151 138
0.01673 0.36259 -0.63986 167 153 136
0.01674 0.36218 -0.63980 164 152 133
0.01436 0.36253 -0.64860 149 140 115
0.01395 0.36293 -0.64885 146 140 123
0.01396 0.36249 -0.64879 146 137 117
0.01398 0.36206 -0.64873 147 136 122
0.01474 0.36301 -0.64847 154 145 131
0.01477 0.36214 -0.64835 154 143 130
0.01510 0.36265 -0.64875 153 146 125
0.01548 0.36313 -0.64861 156 145 132
0.01549 0.36269 -0.64855 155 146 131
0.01551 0.36225 -0.64849 156 144 132
0.01803 0.36301 -0.64812 147 135 123
0.01762 0.36341 -0.64837 149 139 123
0.01763 0.36297 -0.64831 149 140 126
0.01765 0.36253 -0.64825 151 138 126
0.01805 0.36257 -0.64806 148 140 127
0.01823 0.36301 -0.64773 144 131 123
0.01558 0.36210 -0.64086 148 138 121
0.01560 0.36168 -0.64081 150 137 123
0.01589 0.36212 -0.64062 154 144 127
0.01629 0.36174 -0.64037 162 148 133
0.01612 0.36213 -0.64029 158 147 131
0.01651 0.36175 -0.64005 164 150 131
0.01504 0.36224 -0.64920 150 140 127
0.01466 0.36176 -0.64934 147 136 124
0.01546 0.36184 -0.64895 155 145 133
0.01849 0.36262 -0.64790 144 137 123
0.01811 0.36214 -0.64803 149 138 121
0.01612 0.36175 -0.64075 158 143 131
0.01576 0.36129 -0.64088 150 135 129
0.01652 0.36137 -0.64051 162 148 134
0.01852 0.36218 -0.64786 143 138 119
0.01099 0.36081 -0.64912 178 167 148
0.01291 0.36113 -0.64988 159 152 132
0.01333 0.36073 -0.64963 157 149 139
0.01347 0.36120 -0.64985 157 151 130
0.01386 0.36168 -0.64971 156 146 127
0.01436 0.36134 -0.65014 156 145 129
0.01476 0.36138 -0.64995 152 140 125
0.01793 0.36166 -0.64779 148 135 120
0.01751 0.36206 -0.64804 150 135 120
0.01753 0.36162 -0.64798 150 138 121
0.01754 0.36118 -0.64792 149 136 124
0.01653 0.36106 -0.64205 145 131 120
0.01613 0.36145 -0.64230 135 122 109
0.01615 0.36102 -0.64224 137 122 107
0.01652 0.36149 -0.64211 143 130 122
0.01692 0.36110 -0.64187 152 137 128
0.01897 0.36246 -0.66367 191 177 166
0.01852 0.36289 -0.66395 193 184 168
0.01853 0.36241 -0.66388 193 181 169
0.01939 0.36298 -0.66353 188 175 162
0.01940 0.36250 -0.66346 187 174 162
0.01942 0.36202 -0.66340 185 175 159
0.01034 0.36028 -0.64897 184 169 153
0.00993 0.36068 -0.64922 186 170 153
0.00995 0.36024 -0.64916 185 171 154
0.00996 0.35981 -0.64911 183 170 151
0.01090 0.36036 -0.64895 179 164 147
0.01436 0.36090 -0.65006 156 145 134
0.01397 0.36042 -0.65020 158 148 135
0.01480 0.36095 -0.64992 149 140 127
0.01519 0.36143 -0.64978 148 137 126
0.01521 0.36099 -0.64972 146 137 124
0.01522 0.36055 -0.64966 147 137 123
0.01791 0.36122 -0.64770 148 133 123
0.01752 0.36074 -0.64783 150 138 124
0.01792 0.36078 -0.64764 145 134 123
0.01820 0.36123 -0.64740 142 122 115
0.01862 0.36084 -0.64715 124 110 102
0.01628 0.36062 -0.64228 139 127 105
0.01690 0.36071 -0.64231 147 135 119
0.01722 0.36074 -0.64207 153 141 129
0.01759 0.36120 -0.64194 159 143 133
0.01760 0.36077 -0.64188 158 144 131
0.01762 0.36035 -0.64182 158 143 125
0.01882 0.36199 -0.66411 192 181 168
0.01837 0.36242 -0.66439 194 184 171
0.01839 0.36194 -0.66432 194 183 169
0.01840 0.36146 -0.66425 194 182 166
0.01927 0.36155 -0.66383 186 174 160
0.01926 0.36203 -0.66390 188 176 163
0.01971 0.36160 -0.66362 185 174 159
0.01031 0.35984 -0.64887 181 168 149
0.00993 0.35937 -0.64900 182 170 152
0.01092 0.35993 -0.64890 176 162 143
0.01453 0.36045 -0.64956 149 138 124
0.01494 0.36005 -0.64931 148 138 123
0.01603 0.36019 -0.64253 130 118 97
0.01600 0.36014 -0.64196 138 127 109
0.01700 0.36030 -0.64233 147 135 122
0.01740 0.35992 -0.64209 151 140 126
0.01734 0.36033 -0.64210 154 141 129
0.01774 0.35995 -0.64186 160 144 127
0.01039 0.35942 -0.64887 180 168 151
0.01001 0.35895 -0.64900 183 169 155
0.01085 0.35948 -0.64875 173 161 145
0.01359 0.35986 -0.64915 155 144 129
0.01321 0.35939 -0.64928 158 147 131
0.01400 0.35947 -0.64890 149 136 125
0.01602 0.35976 -0.64245 131 122 110
0.01642 0.35937 -0.64220 139 129 109
0.01598 0.35971 -0.64187 137 130 120
0.01638 0.35933 -0.64162 146 137 117
0.01704 0.35988 -0.64230 143 137 124
0.01744 0.35950 -0.64205 154 143 125
0.01047 0.35900 -0.64888 181 168 154
0.01009 0.35853 -0.64901 182 170 152
0.01091 0.35905 -0.64874 172 159 149
0.01581 0.35929 -0.64218 132 122 102
0.01621 0.35891 -0.64193 140 129 104
0.01050 0.35857 -0.64884 180 168 149
0.01012 0.35810 -0.64897 181 170 149
0.01102 0.35864 -0.64878 172 158 145
0.01147 0.35869 -0.64864 163 149 139
0.01188 0.35829 -0.64839 160 147 131
0.01932 0.36015 -0.66430 189 178 167
0.01886 0.36059 -0.66458 192 181 167
0.01888 0.36011 -0.66451 191 180 166
0.01890 0.35963 -0.66445 190 178 161
0.01974 0.36068 -0.66416 186 172 160
0.01977 0.35972 -0.66402 184 171 156
0.01975 0.36020 -0.66409 185 173 160
0.02018 0.36072 -0.66395 185 172 155
0.02019 0.36024 -0.66388 185 172 156
0.02021 0.35976 -0.66381 184 172 159
0.01964 0.35973 -0.66456 187 175 160
0.01921 0.35920 -0.66471 188 177 162
0.02009 0.35929 -0.66428 182 169 156
0.00938 0.35663 -0.64740 173 162 147
0.00901 0.35617 -0.64753 177 166 150
0.04787 0.36229 -0.70102 192 181 172
0.04732 0.36223 -0.70129 191 181 169
0.04734 0.36163 -0.70121 190 180 166
0.04844 0.36174 -0.70067 188 176 162
0.01380 0.35553 -0.64919 154 141 129
0.01340 0.35549 -0.64939 157 147 135
0.01420 0.35557 -0.64900 148 136 121
0.01422 0.35513 -0.64894 148 136 117
0.01360 0.35507 -0.64950 156 146 131
0.01470 0.35523 -0.65001 152 141 123
0.01512 0.35482 -0.64976 148 137 115
0.01891 0.35566 -0.64824 140 130 116
0.01886 0.35563 -0.64762 130 119 102
0.01916 0.35564 -0.64676 120 110 95
0.01958 0.35524 -0.64651 124 114 106
0.01840 0.35550 -0.64549 123 114 100
0.01881 0.35510 -0.64524 129 117 105
0.01866 0.35552 -0.64518 127 117 103
0.01613 0.35508 -0.65378 166 153 141
0.01656 0.35467 -0.65352 159 149 132
0.01616 0.35507 -0.65319 160 148 135
0.01658 0.35466 -0.65293 157 149 130
0.01457 0.35478 -0.65040 156 145 126
0.01551 0.35490 -0.65073 150 140 118
0.01593 0.35450 -0.65048 148 136 117
0.01968 0.35535 -0.64947 143 134 123
0.01927 0.35531 -0.64967 148 138 124
0.01929 0.35487 -0.64961 149 137 122
0.01970 0.35491 -0.64941 144 135 124
0.01966 0.35533 -0.64887 138 129 118
0.01930 0.35524 -0.64739 118 106 96
0.01919 0.35520 -0.64671 123 110 101
0.01960 0.35480 -0.64646 125 114 105
0.01774 0.35492 -0.64371 136 121 107
0.01457 0.35434 -0.65032 154 145 126
0.01418 0.35385 -0.65046 157 148 129
0.01950 0.35486 -0.64864 138 130 120
0.01858 0.35463 -0.64496 130 117 110
0.01820 0.35416 -0.64509 124 115 100
0.01467 0.35391 -0.65034 154 144 125
0.01428 0.35342 -0.65048 158 146 130
0.01509 0.35350 -0.65009 148 137 115
0.01899 0.35436 -0.64867 144 136 118
0.01859 0.35432 -0.64886 148 136 118
0.01860 0.35387 -0.64880 146 137 120
0.01912 0.35436 -0.64821 135 129 113
0.01926 0.35436 -0.64777 121 114 103
0.01968 0.35396 -0.64751 116 108 100
0.01774 0.35395 -0.65518 163 150 135
0.01818 0.35353 -0.65491 158 145 132
0.01481 0.35348 -0.65041 154 143 123
0.01442 0.35300 -0.65054 158 146 129
0.01523 0.35308 -0.65015 147 138 117
0.01873 0.35387 -0.64834 141 134 115
0.01834 0.35339 -0.64848 145 136 123
0.01891 0.35388 -0.64794 133 126 109
0.01900 0.35388 -0.64745 119 111 101
0.01941 0.35348 -0.64719 118 108 99
0.01854 0.35340 -0.64809 141 131 117
0.01816 0.35292 -0.64822 143 135 123
0.01878 0.35342 -0.64774 133 122 109
0.01883 0.35341 -0.64722 120 109 102
0.01925 0.35301 -0.64696 119 106 97
0.01302 0.35235 -0.64848 153 142 125
0.01263 0.35231 -0.64867 158 146 130
0.01342 0.35239 -0.64829 147 138 122
0.01344 0.35195 -0.64823 147 135 119
0.01813 0.35290 -0.64762 139 130 118
0.01774 0.35242 -0.64776 142 135 126
0.01839 0.35292 -0.64729 130 120 109
0.01838 0.35291 -0.64672 119 108 100
0.01880 0.35251 -0.64647 120 104 96
0.01535 0.35226 -0.65314 164 156 140
0.01529 0.35224 -0.65246 158 149 136
0.01571 0.35183 -0.65220 157 146 131
0.01413 0.35207 -0.65010 156 146 132
0.01841 0.35250 -0.64781 139 131 122
0.01802 0.35201 -0.64794 143 136 125
0.01830 0.35246 -0.64656 117 107 101
0.01871 0.35206 -0.64631 121 105 94
0.01613 0.35212 -0.64179 142 129 114
0.01653 0.35174 -0.64155 147 135 118
0.01480 0.35174 -0.65251 163 154 134
0.01523 0.35133 -0.65225 156 148 127
0.01485 0.35174 -0.65195 158 147 131
0.01527 0.35133 -0.65169 156 145 126
0.01866 0.35208 -0.64798 138 131 119
0.01821 0.35201 -0.64641 118 106 96
0.01863 0.35161 -0.64616 122 108 96
0.01605 0.35170 -0.64219 132 120 105
0.01595 0.35167 -0.64156 142 130 113
0.01635 0.35129 -0.64131 149 136 117
0.01406 0.35121 -0.65228 166 160 132
0.01366 0.35072 -0.65242 170 159 138
0.01446 0.35125 -0.65209 161 154 128
0.01489 0.35084 -0.65183 155 148 127
0.01877 0.35166 -0.64858 144 135 120
0.01835 0.35207 -0.64884 146 136 127
0.01837 0.35162 -0.64878 148 136 121
0.01838 0.35118 -0.64872 146 137 120
0.01879 0.35122 -0.64852 144 136 121
0.01910 0.35169 -0.64831 138 128 115
0.01914 0.35169 -0.64777 127 115 103
0.01955 0.35129 -0.64752 119 105 95
0.01466 0.35083 -0.65282 167 159 131
0.01426 0.35034 -0.65295 169 158 138
0.01507 0.35087 -0.65262 160 153 126
0.01549 0.35046 -0.65236 155 146 129
0.01944 0.35129 -0.64856 138 127 118
0.01935 0.35127 -0.64790 125 112 104
0.01977 0.35087 -0.64764 118 104 91
0.01668 0.35093 -0.64372 126 113 98
0.01640 0.35088 -0.64236 135 123 107
0.01658 0.35090 -0.64199 144 129 111
0.01699 0.35051 -0.64174 151 134 121
0.01566 0.35049 -0.65375 167 156 135
0.01526 0.35000 -0.65389 169 158 135
0.01609 0.35008 -0.65349 158 146 131
0.01607 0.35054 -0.65356 160 149 131
0.01650 0.35012 -0.65329 155 145 130
0.01071 0.34989 -0.64638 154 144 129
0.01030 0.35028 -0.64663 155 145 128
0.01032 0.34985 -0.64657 155 146 130
0.01033 0.34942 -0.64651 155 147 130
0.01959 0.35087 -0.64921 141 136 120
0.01919 0.35082 -0.64941 144 138 120
0.01920 0.35038 -0.64935 145 135 119
0.01989 0.35089 -0.64891 134 126 115
0.01965 0.35086 -0.64811 121 111 100
0.02007 0.35046 -0.64785 117 105 95
0.01627 0.35045 -0.64272 129 117 107
0.01583 0.35039 -0.64177 136 124 114
0.01614 0.35042 -0.64151 145 130 118
0.01654 0.35003 -0.64126 150 137 123
-0.05022 0.34504 -0.90189 168 163 145
-0.05115 0.34594 -0.90246 172 166 151
-0.05112 0.34495 -0.90233 171 166 151
-0.05026 0.34603 -0.90203 171 165 150
-0.04929 0.34415 -0.90133 163 158 139
0.01548 0.35002 -0.65350 165 153 133
0.01067 0.34946 -0.64628 152 144 127
0.01030 0.34899 -0.64640 156 146 128
0.01108 0.34907 -0.64603 144 137 119
0.02013 0.35048 -0.64964 142 132 117
0.01973 0.34999 -0.64977 146 134 120
0.02039 0.35050 -0.64930 132 123 109
0.01992 0.35044 -0.64829 118 110 99
0.02034 0.35004 -0.64803 116 108 97
0.01151 0.34912 -0.64703 151 142 124
0.01113 0.34864 -0.64717 156 145 124
0.01192 0.34872 -0.64678 143 136 116
0.02073 0.35009 -0.65013 143 131 117
0.02033 0.34960 -0.65027 145 135 120
0.02094 0.35011 -0.64975 132 120 109
0.02060 0.35007 -0.64885 117 108 99
0.02103 0.34967 -0.64859 117 108 94
0.02130 0.34970 -0.65060 142 132 116
0.02091 0.34920 -0.65073 143 135 119
0.02159 0.34973 -0.65028 131 121 106
0.02099 0.34966 -0.64914 117 108 95
0.02142 0.34926 -0.64888 117 108 93
0.02144 0.34926 -0.65065 139 133 113
0.02104 0.34876 -0.65078 144 134 121
0.02185 0.34930 -0.65045 127 121 100
0.02228 0.34889 -0.65018 116 109 89
0.02144 0.34880 -0.65057 138 130 114
0.02083 0.34829 -0.65051 145 136 122
0.02040 0.34870 -0.65077 145 135 121
0.02042 0.34825 -0.65071 146 137 122
0.02043 0.34779 -0.65065 146 136 116
0.02165 0.34837 -0.65011 125 117 101
0.02208 0.34796 -0.64985 117 108 98
0.02090 0.34784 -0.65049 144 134 116
0.02050 0.34735 -0.65063 146 133 114
0.02133 0.34788 -0.65032 136 126 112
0.02152 0.34790 -0.64990 123 114 103
0.02194 0.34749 -0.64964 117 108 99
0.02047 0.34735 -0.65001 143 130 113
0.02008 0.34686 -0.65015 144 133 114
0.02097 0.34740 -0.64989 133 121 109
0.02113 0.34742 -0.64946 121 110 101
0.02155 0.34701 -0.64920 116 109 96
-0.03905 0.33827 -0.89646 70 68 65
-0.03800 0.33837 -0.89686 64 63 61
-0.03706 0.33747 -0.89629 61 62 56
0.02114 0.34695 -0.65057 141 130 113
0.02074 0.34646 -0.65070 143 134 114
0.02123 0.34697 -0.65006 131 120 107
-0.03954 0.33728 -0.89355 72 67 67
-0.03856 0.33737 -0.89357 66 64 61
-0.03764 0.33648 -0.89301 60 60 56
0.02104 0.34649 -0.65040 140 130 116
0.02065 0.34599 -0.65054 144 133 116
0.02119 0.34651 -0.64995 129 119 111
0.02094 0.34650 -0.64913 117 107 100
0.02136 0.34609 -0.64887 119 109 97
-0.03962 0.33630 -0.89280 72 70 69
-0.03873 0.33639 -0.89237 65 64 62
-0.03781 0.33550 -0.89180 61 59 59
0.02099 0.34603 -0.65027 141 130 117
0.02110 0.34605 -0.64978 128 116 111
0.02152 0.34564 -0.64952 118 106 93
0.02072 0.34603 -0.64885 117 105 101
0.02115 0.34562 -0.64859 121 111 94
0.02012 0.34550 -0.64996 143 131 116
0.01970 0.34591 -0.65022 146 135 117
0.01971 0.34546 -0.65016 147 135 119
0.02014 0.34505 -0.64990 142 129 114
0.02061 0.34555 -0.64983 140 128 112
0.02080 0.34557 -0.64943 127 114 101
0.02123 0.34517 -0.64917 117 106 87
-0.03852 0.33454 -0.88781 62 59 60
-0.03768 0.33560 -0.88752 60 57 57
-0.03764 0.33463 -0.88738 58 56 54
-0.03761 0.33367 -0.88725 58 57 57
0.02068 0.34510 -0.64982 138 125 110
0.02080 0.34512 -0.64935 125 113 96
0.02122 0.34471 -0.64909 115 107 86
0.01596 0.34487 -0.64095 145 136 116
0.01635 0.34490 -0.64076 149 139 120
0.01636 0.34448 -0.64070 149 138 120
-0.03864 0.33358 -0.88687 62 61 61
-0.03773 0.33271 -0.88632 58 58 58
0.02026 0.34461 -0.64994 143 131 115
0.01985 0.34456 -0.65014 145 133 116
0.01987 0.34411 -0.65007 145 135 117
0.02054 0.34464 -0.64961 137 124 110
0.02076 0.34467 -0.64924 123 112 95
0.02119 0.34426 -0.64898 114 109 93
0.01616 0.34403 -0.64099 147 135 117
0.01656 0.34364 -0.64074 151 139 122
-0.03660 0.33070 -0.89145 57 57 55
-0.03575 0.33177 -0.89116 57 58 57
-0.03571 0.33079 -0.89102 57 56 55
-0.03568 0.32981 -0.89089 55 52 52
0.01736 0.34321 -0.64302 137 127 105
0.01743 0.34323 -0.64254 144 133 112
0.01783 0.34284 -0.64229 148 137 120
0.02660 0.34207 -0.67157 165 155 134
0.02705 0.34263 -0.67141 163 155 141
0.02706 0.34212 -0.67134 164 154 136
0.02708 0.34160 -0.67127 164 153 135
0.01415 0.34139 -0.64948 146 139 124
0.01376 0.34090 -0.64961 150 144 129
0.01457 0.34099 -0.64922 142 134 118
0.01954 0.34186 -0.64880 139 127 111
0.01976 0.34189 -0.64842 125 113 99
0.02019 0.34149 -0.64816 116 106 93
0.02663 0.34101 -0.67215 167 155 140
0.02618 0.34045 -0.67231 168 157 148
0.02712 0.34054 -0.67185 160 147 136
0.01891 0.34136 -0.64870 143 132 114
0.01849 0.34177 -0.64896 146 136 116
0.01850 0.34132 -0.64890 146 134 116
0.01852 0.34087 -0.64884 146 133 116
0.01922 0.34140 -0.64841 137 125 107
0.01948 0.34143 -0.64808 122 110 96
0.01991 0.34103 -0.64783 115 106 93
0.01874 0.34145 -0.64624 118 109 93
0.01915 0.34105 -0.64598 120 114 96
0.01856 0.34092 -0.64772 134 123 105
0.01905 0.34097 -0.64760 119 109 94
0.01947 0.34056 -0.64734 116 107 92
0.01797 0.34043 -0.64766 142 130 113
0.01758 0.33994 -0.64779 144 131 115
0.01814 0.34046 -0.64725 131 122 104
0.01857 0.34050 -0.64708 117 108 91
0.01899 0.34010 -0.64682 117 107 89
0.01780 0.34058 -0.64409 126 121 94
0.01742 0.34011 -0.64422 122 115 92
0.01741 0.34059 -0.64318 134 126 103
0.01745 0.34062 -0.64267 141 130 114
0.01739 0.34064 -0.64207 147 135 120
0.01777 0.34111 -0.64194 150 137 122
0.01778 0.34068 -0.64188 151 139 121
0.01779 0.34025 -0.64182 150 140 119
0.01728 0.34013 -0.64354 128 120 95
0.01705 0.34015 -0.64278 136 125 103
0.01727 0.34018 -0.64243 142 130 112
0.01742 0.34022 -0.64202 147 136 116
0.01783 0.33982 -0.64178 150 139 120
0.01711 0.33963 -0.64443 120 112 92
0.01710 0.34007 -0.64449 121 112 93
0.01702 0.33966 -0.64378 123 115 96
0.01708 0.33969 -0.64328 129 120 100
0.01705 0.33972 -0.64271 137 125 106
0.01734 0.33975 -0.64242 143 130 113
0.01752 0.33979 -0.64204 147 136 116
0.01793 0.33940 -0.64179 150 139 122
0.01679 0.33919 -0.64405 120 112 96
0.01693 0.33922 -0.64363 123 116 100
0.01694 0.33925 -0.64308 130 122 105
0.01705 0.33929 -0.64264 138 126 110
0.01730 0.33932 -0.64231 144 130 114
0.01741 0.33935 -0.64187 148 136 118
0.01782 0.33896 -0.64162 150 139 125
0.01657 0.33875 -0.64378 120 111 100
0.01659 0.33832 -0.64372 121 112 102
0.01694 0.33879 -0.64356 124 115 103
0.01672 0.33882 -0.64281 132 122 107
0.01685 0.33885 -0.64237 139 127 113
0.01686 0.33888 -0.64184 144 130 119
0.01727 0.33849 -0.64159 147 135 126
0.01705 0.33892 -0.64147 148 135 124
0.01746 0.33853 -0.64122 149 137 127
0.01704 0.33836 -0.64358 125 116 104
0.01666 0.33788 -0.64371 122 113 98
0.01697 0.33839 -0.64296 133 122 105
0.01696 0.33845 -0.64185 144 131 119
0.01736 0.33806 -0.64161 148 135 122
0.01724 0.33796 -0.64313 134 122 106
0.01672 0.33802 -0.64157 145 132 116
0.01713 0.33763 -0.64132 148 134 122
0.01701 0.33713 -0.64223 142 129 115
0.01647 0.33658 -0.64331 123 115 96
0.01606 0.33697 -0.64357 120 112 94
0.01608 0.33654 -0.64351 119 111 93
0.01609 0.33611 -0.64345 118 114 90
0.01653 0.33669 -0.64172 141 132 116
0.01694 0.33630 -0.64147 145 136 122
0.01919 0.33551 -0.65468 147 143 126
0.01875 0.33593 -0.65495 149 143 125
0.01877 0.33547 -0.65489 150 145 125
0.01878 0.33500 -0.65482 151 145 126
0.01963 0.33509 -0.65442 139 132 115
0.01587 0.33615 -0.64269 122 117 94
0.01549 0.33568 -0.64282 120 113 91
0.01581 0.33626 -0.64099 142 132 117
0.01621 0.33588 -0.64074 144 135 121
0.01551 0.33572 -0.64228 123 115 95
0.01545 0.33576 -0.64168 128 121 103
0.01556 0.33580 -0.64123 134 128 111
0.01596 0.33541 -0.64098 139 135 117
0.01501 0.33525 -0.64229 123 110 92
0.01571 0.33529 -0.64239 125 113 97
0.01496 0.33482 -0.64218 124 111 90
0.01552 0.33486 -0.64214 125 114 97
-0.02476 0.31313 -0.86126 104 95 80
-0.02389 0.31229 -0.86072 98 92 70
-0.02392 0.31321 -0.86087 102 94 77
-0.02304 0.31237 -0.86034 97 91 72
0.01607 0.33399 -0.64250 127 117 95
0.01569 0.33352 -0.64263 124 111 95
-0.02815 0.31221 -0.85865 98 93 76
-0.02729 0.31138 -0.85812 94 88 74
-0.02785 0.31246 -0.85606 97 92 77
-0.02700 0.31163 -0.85554 94 88 75
-0.02671 0.31245 -0.85695 99 91 76
-0.02585 0.31162 -0.85642 94 88 74
-0.02522 0.31234 -0.85917 100 91 73
-0.02436 0.31151 -0.85864 93 89 73
0.01641 0.33355 -0.64275 129 115 95
0.01603 0.33308 -0.64288 124 111 96
-0.02917 0.31128 -0.85801 96 88 69
-0.02997 0.31029 -0.85829 94 85 63
-0.02914 0.31037 -0.85788 94 86 67
-0.02831 0.31046 -0.85748 93 85 73
0.01470 0.33296 -0.64330 114 105 89
0.01511 0.33257 -0.64305 115 109 89
0.01670 0.33311 -0.64294 129 116 97
0.01638 0.33259 -0.64368 120 111 94
0.01636 0.33302 -0.64374 120 109 96
0.01671 0.33263 -0.64343 124 114 96
0.01722 0.33266 -0.64334 129 118 101
0.01706 0.33208 -0.64480 116 110 90
0.01712 0.33213 -0.64430 119 115 94
0.01731 0.33217 -0.64391 122 118 98
0.01749 0.33222 -0.64351 129 122 105
0.01777 0.33167 -0.64482 119 115 93
0.01780 0.33172 -0.64428 123 119 98
0.01792 0.33177 -0.64383 128 124 105
0.01915 0.33089 -0.64892 136 129 119
0.01872 0.33130 -0.64918 139 132 121
0.01874 0.33085 -0.64912 139 132 120
0.01875 0.33039 -0.64906 139 133 116
0.01941 0.33094 -0.64859 132 125 112
0.01798 0.33122 -0.64494 123 112 88
0.01790 0.33128 -0.64430 127 117 93
0.01808 0.33133 -0.64391 130 122 99
0.01921 0.33043 -0.64890 137 131 117
0.01881 0.32994 -0.64904 138 132 112
0.01939 0.33049 -0.64848 131 123 108
0.01814 0.33077 -0.64501 125 110 88
0.01913 0.32999 -0.64875 139 130 113
0.01873 0.32949 -0.64889 139 131 115
0.01952 0.33003 -0.64853 130 120 105
0.01794 0.33034 -0.64476 124 109 92
0.01760 0.33042 -0.64388 126 114 95
0.01756 0.33048 -0.64328 133 121 102
0.01768 0.32992 -0.64444 124 110 96
0.01739 0.32999 -0.64361 127 116 96
0.01726 0.32956 -0.64341 128 118 94
0.01688 0.32908 -0.64355 122 113 95
0.01715 0.32963 -0.64276 134 123 100
0.01756 0.32923 -0.64251 139 128 107
0.01713 0.32863 -0.64370 122 115 96
0.01671 0.32903 -0.64396 118 110 97
0.01673 0.32859 -0.64390 119 111 95
0.01727 0.32819 -0.64376 122 116 96
0.02610 0.31194 -0.77947 183 187 167
0.02541 0.31108 -0.77971 185 188 168
0.02613 0.31115 -0.77937 183 188 167
0.02684 0.31122 -0.77902 182 185 166
0.03166 0.31156 -0.78470 168 171 153
0.03236 0.31244 -0.78446 167 170 154
0.01680 0.32737 -0.64666 137 125 118
0.01638 0.32778 -0.64692 142 129 120
0.01639 0.32733 -0.64686 140 130 118
0.01641 0.32689 -0.64680 137 131 119
0.01701 0.32743 -0.64629 133 121 114
0.01716 0.32749 -0.64585 119 106 99
0.01757 0.32709 -0.64559 114 102 91
0.01734 0.32775 -0.64375 124 114 98
0.01741 0.32703 -0.64601 117 105 98
0.01783 0.32663 -0.64575 114 104 88
0.01742 0.32724 -0.64431 122 111 98
0.01743 0.32680 -0.64425 123 112 99
0.01783 0.32684 -0.64405 126 115 101
0.01751 0.32730 -0.64383 127 114 102
0.03478 0.30959 -0.78838 179 185 167
0.03555 0.30884 -0.78790 170 175 158
0.01819 0.32653 -0.64666 114 104 92
0.01861 0.32612 -0.64641 114 107 86
0.01701 0.32703 -0.64219 136 125 107
0.01741 0.32707 -0.64200 140 130 112
0.01742 0.32664 -0.64194 140 131 113
0.01900 0.32602 -0.64735 113 106 86
0.01943 0.32561 -0.64709 114 107 88
0.01796 0.32639 -0.64410 124 117 100
0.01756 0.32635 -0.64430 122 113 96
0.01758 0.32591 -0.64423 121 113 96
0.01822 0.32593 -0.64426 125 118 101
0.01784 0.32545 -0.64440 121 113 96
0.01864 0.32553 -0.64401 133 125 108
0.01766 0.32605 -0.64318 130 125 108
0.01807 0.32565 -0.64293 136 128 109
0.01857 0.32546 -0.64451 128 119 102
0.01818 0.32498 -0.64464 120 115 95
0.01929 0.32496 -0.64510 128 119 101
0.01890 0.32447 -0.64523 120 114 97
0.01908 0.32505 -0.64434 134 125 105
0.01948 0.32509 -0.64414 137 128 107
0.01950 0.32465 -0.64408 137 128 107
0.04696 0.30895 -0.76569 132 131 113
0.04625 0.30887 -0.76604 134 134 113
0.04628 0.30810 -0.76593 136 135 119
0.04694 0.30972 -0.76580 132 130 107
0.04764 0.30980 -0.76546 133 129 109
0.04767 0.30902 -0.76535 133 128 111
0.01973 0.32447 -0.64542 126 119 101
0.01994 0.32453 -0.64505 133 126 103
0.02036 0.32413 -0.64479 138 128 108
0.04701 0.30816 -0.76562 134 135 119
0.04633 0.30731 -0.76586 138 139 119
0.04704 0.30739 -0.76552 137 139 119
0.04772 0.30824 -0.76528 133 131 113
0.04840 0.30909 -0.76505 132 128 105
0.04843 0.30831 -0.76494 133 130 106
0.04846 0.30753 -0.76483 134 132 108
0.02011 0.32399 -0.64570 127 119 100
0.02032 0.32405 -0.64532 134 125 103
0.02074 0.32365 -0.64506 139 127 110
0.04773 0.30746 -0.76515 135 135 113
0.04705 0.30661 -0.76538 137 140 116
0.04847 0.30675 -0.76470 132 131 107
0.02011 0.32347 -0.64619 123 112 96
0.01972 0.32298 -0.64633 120 110 91
0.02041 0.32352 -0.64590 129 118 100
0.02083 0.32311 -0.64564 134 124 107
0.02053 0.32359 -0.64544 135 124 105
0.02095 0.32318 -0.64518 138 127 109
0.02014 0.32302 -0.64614 125 114 97
0.02024 0.32309 -0.64566 130 120 103
0.02066 0.32268 -0.64540 134 125 107
0.02052 0.32201 -0.64993 135 124 109
0.02012 0.32151 -0.65007 136 127 107
0.02072 0.32208 -0.64952 126 114 100
0.02142 0.32209 -0.64959 113 102 88
0.02185 0.32167 -0.64932 114 105 86
0.02056 0.32244 -0.64703 122 111 91
0.02013 0.32285 -0.64729 118 108 91
0.02015 0.32240 -0.64723 118 108 85
0.02040 0.32254 -0.64630 126 115 99
0.02030 0.32264 -0.64564 130 121 105
0.02072 0.32223 -0.64538 135 125 109
0.02115 0.32148 -0.65045 134 125 107
0.02075 0.32098 -0.65059 134 129 108
0.02148 0.32154 -0.65017 123 114 97
0.02192 0.32112 -0.64990 110 101 85
0.02217 0.32155 -0.65021 112 102 85
0.02064 0.32207 -0.64645 124 116 103
0.02228 0.32089 -0.65143 130 127 109
0.02187 0.32039 -0.65158 134 127 111
0.02247 0.32096 -0.65101 119 111 98
0.02290 0.32054 -0.65074 111 99 86
0.02241 0.32115 -0.64977 115 106 89
0.02285 0.32073 -0.64950 118 109 98
0.02078 0.32160 -0.64650 125 118 100
0.02052 0.32172 -0.64569 132 124 103
0.02095 0.32131 -0.64544 136 127 104
0.02269 0.32038 -0.65175 129 125 110
0.02288 0.32045 -0.65132 118 107 95
0.02332 0.32003 -0.65105 111 100 86
0.02276 0.32065 -0.65001 117 106 93
0.02320 0.32023 -0.64975 117 107 96
0.02099 0.32113 -0.64662 127 118 98
0.02142 0.32072 -0.64636 132 124 106
0.02053 0.32127 -0.64562 133 124 101
0.02095 0.32087 -0.64536 135 127 105
0.02279 0.31991 -0.65176 130 122 107
0.02295 0.31998 -0.65131 115 106 90
0.02339 0.31956 -0.65104 110 101 86
0.02286 0.32018 -0.65002 116 105 93
0.02155 0.32061 -0.64705 127 118 101
0.02274 0.31974 -0.64983 114 105 90
0.02275 0.31927 -0.64977 115 104 84
0.02232 0.31988 -0.64886 117 108 90
0.02168 0.32015 -0.64710 128 118 98
0.02133 0.32028 -0.64620 132 123 104
0.02174 0.32032 -0.64600 136 126 106
0.02176 0.31987 -0.64594 138 125 109
0.02213 0.31945 -0.64860 119 108 85
0.02173 0.31895 -0.64874 117 104 85
0.02215 0.31899 -0.64854 120 106 87
0.02205 0.31955 -0.64794 123 113 91
0.02195 0.31966 -0.64727 129 118 97
0.02159 0.31980 -0.64637 134 122 103
0.02202 0.31939 -0.64610 138 125 109
0.02220 0.31908 -0.64800 124 112 93
0.02239 0.31915 -0.64759 130 119 102
0.02282 0.31874 -0.64733 135 124 105
0.02216 0.31853 -0.64847 118 107 87
0.02175 0.31849 -0.64868 116 105 85
0.02176 0.31803 -0.64861 116 107 85
0.02212 0.31818 -0.64777 123 115 98
0.02282 0.31701 -0.65191 131 122 104
0.02241 0.31650 -0.65205 134 123 106
0.02326 0.31659 -0.65164 114 107 90
0.02274 0.31713 -0.65124 117 110 89
0.02318 0.31670 -0.65097 110 101 83
0.02195 0.31765 -0.64812 120 111 92
0.02155 0.31715 -0.64826 118 109 88
0.02197 0.31719 -0.64806 121 113 89
0.02201 0.31774 -0.64760 124 115 97
0.02226 0.31781 -0.64724 130 120 102
0.02267 0.31785 -0.64704 133 124 107
0.02269 0.31740 -0.64698 133 126 105
0.02163 0.31735 -0.64716 126 116 93
0.02123 0.31685 -0.64730 119 113 85
0.02199 0.31739 -0.64692 132 121 101
0.02242 0.31698 -0.64666 134 125 100
0.02142 0.31692 -0.64690 125 116 90
0.02185 0.31651 -0.64664 132 122 100
0.02186 0.31696 -0.64672 132 122 99
0.02229 0.31655 -0.64646 135 124 103
0.02136 0.31638 -0.64735 120 112 88
0.02093 0.31679 -0.64761 117 109 85
0.02095 0.31633 -0.64755 116 108 87
0.02112 0.31652 -0.64655 127 116 94
0.02159 0.31589 -0.64748 123 112 94
0.02119 0.31539 -0.64761 121 108 92
0.02160 0.31543 -0.64741 124 112 93
0.02202 0.31548 -0.64721 129 117 96
0.02129 0.31604 -0.64662 128 117 97
0.02172 0.31563 -0.64636 132 118 100
0.02573 0.31362 -0.65480 131 123 101
0.02555 0.31305 -0.65518 133 126 110
0.02510 0.31349 -0.65545 136 129 112
0.02511 0.31301 -0.65539 136 129 114
0.02513 0.31253 -0.65532 136 129 112
0.02557 0.31257 -0.65511 132 128 109
0.02605 0.31309 -0.65502 129 124 103
0.02647 0.31313 -0.65479 118 112 89
0.02692 0.31270 -0.65451 110 101 85
-0.03384 0.28923 -0.77341 102 89 60
-0.03451 0.28987 -0.77382 100 90 59
-0.03449 0.28917 -0.77372 101 88 59
-0.03387 0.28994 -0.77351 100 88 57
-0.03323 0.29000 -0.77320 101 89 59
-0.03320 0.28930 -0.77310 102 92 59
0.02620 0.31258 -0.65508 129 125 104
0.02665 0.31262 -0.65488 116 109 89
0.02711 0.31219 -0.65461 111 100 87
0.02630 0.31196 -0.65572 132 125 107
0.02587 0.31144 -0.65586 133 126 108
0.02673 0.31201 -0.65551 128 121 103
0.02724 0.31204 -0.65535 114 106 89
0.02770 0.31160 -0.65508 111 103 86
0.02355 0.31328 -0.64889 127 113 93
0.02312 0.31370 -0.64916 120 110 92
0.02313 0.31324 -0.64910 120 108 92
0.02680 0.31139 -0.65611 132 122 106
0.02638 0.31086 -0.65626 133 125 107
0.02715 0.31145 -0.65582 127 117 100
0.02774 0.31147 -0.65574 113 105 88
0.02820 0.31103 -0.65546 110 105 84
0.02451 0.31254 -0.65028 122 107 93
0.02407 0.31296 -0.65055 117 106 93
0.02408 0.31249 -0.65049 118 106 92
0.02410 0.31203 -0.65043 116 106 89
0.02353 0.31283 -0.64880 128 115 99
0.02397 0.31241 -0.64853 131 119 106
-0.04427 0.28945 -0.76127 97 88 68
-0.04490 0.29006 -0.76166 99 90 69
-0.04488 0.28939 -0.76157 99 91 71
-0.04485 0.28873 -0.76147 101 91 73
-0.04369 0.29018 -0.76107 97 83 58
-0.04367 0.28952 -0.76098 97 84 62
0.02743 0.31079 -0.65663 132 122 105
0.02701 0.31026 -0.65678 132 124 107
0.02767 0.31088 -0.65623 125 115 99
0.02823 0.31090 -0.65612 111 104 86
0.02869 0.31046 -0.65584 110 104 85
0.02420 0.31213 -0.64992 121 111 95
0.02464 0.31171 -0.64965 126 118 100
0.02360 0.31236 -0.64878 127 117 101
0.02403 0.31194 -0.64851 129 120 102
-0.04433 0.28885 -0.76088 99 88 72
-0.04491 0.28813 -0.76108 105 90 75
-0.04431 0.28819 -0.76079 103 91 77
0.02781 0.31024 -0.65690 130 121 104
0.02738 0.30971 -0.65705 132 125 108
0.02827 0.30980 -0.65662 121 113 99
0.02796 0.31034 -0.65641 123 114 101
-0.04444 0.28879 -0.75787 100 88 77
-0.04501 0.28808 -0.75807 103 94 78
-0.04441 0.28814 -0.75778 102 94 79
-0.04384 0.28885 -0.75758 98 85 71
-0.04327 0.28957 -0.75738 100 88 61
-0.04325 0.28892 -0.75729 99 87 65
0.02840 0.30964 -0.65738 129 123 106
0.02797 0.30910 -0.65753 134 125 111
0.02887 0.30919 -0.65710 119 111 94
0.02312 0.31153 -0.64819 127 118 100
0.02354 0.31157 -0.64798 129 120 102
-0.04377 0.28816 -0.75767 99 90 72
-0.04434 0.28745 -0.75786 104 95 75
-0.04375 0.28751 -0.75758 103 96 73
-0.04315 0.28757 -0.75729 104 97 72
0.02888 0.30906 -0.65776 132 123 106
0.02935 0.30861 -0.65747 118 107 93
0.02230 0.31123 -0.64736 128 115 97
0.02253 0.31130 -0.64699 131 120 102
0.02293 0.31180 -0.64685 134 123 105
0.02295 0.31134 -0.64679 133 123 106
0.02296 0.31089 -0.64672 133 124 105
-0.04172 0.28801 -0.75521 99 93 66
-0.04233 0.28860 -0.75559 100 91 64
-0.04229 0.28730 -0.75541 104 98 73
-0.04174 0.28866 -0.75530 99 90 62
-0.04115 0.28872 -0.75501 101 90 66
-0.04113 0.28807 -0.75492 100 91 62
0.02877 0.30846 -0.65820 133 122 109
0.02830 0.30890 -0.65849 134 126 114
0.02832 0.30841 -0.65842 133 126 113
0.02879 0.30796 -0.65813 133 121 104
0.02960 0.30843 -0.65834 131 119 103
0.03006 0.30798 -0.65806 117 104 90
0.02148 0.31081 -0.64710 125 110 88
0.02187 0.31085 -0.64689 128 113 95
0.02210 0.31093 -0.64652 131 119 100
0.02253 0.31052 -0.64626 133 125 102
0.03033 0.30778 -0.65896 130 118 101
0.02990 0.30724 -0.65911 131 123 103
0.02075 0.31050 -0.64637 126 110 90
0.02111 0.31055 -0.64612 129 115 95
0.03085 0.30718 -0.65936 128 117 100
0.03041 0.30664 -0.65951 131 123 102
0.03150 0.30655 -0.65989 125 115 97
0.03106 0.30600 -0.66004 130 123 104
0.03152 0.30605 -0.65982 122 112 93
0.03199 0.30659 -0.65970 111 103 87
0.03246 0.30613 -0.65941 108 101 88
0.03092 0.28943 -0.71963 117 107 84
0.03035 0.28872 -0.71983 120 114 88
0.05388 0.29653 -0.68820 128 118 100
0.05445 0.29599 -0.68785 126 114 101
0.05048 0.29561 -0.68453 121 110 96
0.05112 0.29564 -0.68438 123 112 95
0.05164 0.29628 -0.68420 129 118 101
0.05166 0.29569 -0.68412 126 118 97
0.04944 0.29663 -0.68042 123 119 96
0.04889 0.29715 -0.68076 128 120 99
0.04891 0.29657 -0.68068 124 119 94
0.04850 0.29705 -0.67876 123 114 96
0.04842 0.29725 -0.67794 121 110 94
0.04875 0.29734 -0.67751 120 108 92
0.04964 0.29731 -0.67761 116 108 92
0.05067 0.29723 -0.67784 111 102 89
0.05117 0.29786 -0.67767 107 99 83
0.05269 0.29692 -0.67900 102 91 81
0.05319 0.29755 -0.67883 105 97 81
0.05323 0.29640 -0.67867 93 88 77
0.05047 0.29503 -0.68442 110 99 89
0.05068 0.29517 -0.68385 118 105 93
0.05109 0.29526 -0.68347 123 114 98
0.04966 0.29600 -0.68054 117 114 92
0.04904 0.29634 -0.67919 117 108 89
0.04861 0.29664 -0.67802 115 104 87
0.04882 0.29676 -0.67748 115 102 90
0.05124 0.29425 -0.68508 88 80 70
0.05180 0.29371 -0.68474 85 76 68
0.05129 0.29462 -0.68356 105 95 88
0.05080 0.29494 -0.68231 107 99 92
0.05069 0.29516 -0.68143 105 100 86
0.04995 0.29554 -0.67996 103 97 81
0.04954 0.29583 -0.67882 101 93 79
0.04968 0.29598 -0.67820 101 91 84
0.05182 0.29391 -0.68397 89 78 72
0.05109 0.29429 -0.68249 92 80 72
0.05164 0.29376 -0.68216 91 81 66
0.05099 0.29451 -0.68163 91 83 72
0.05154 0.29398 -0.68129 89 84 71
0.05065 0.29479 -0.68054 88 86 73
0.05120 0.29426 -0.68020 84 82 67
0.05158 0.29259 -0.68680 96 86 72
0.05165 0.29277 -0.68607 98 87 74
0.05157 0.29299 -0.68520 98 87 77
0.05151 0.29321 -0.68435 95 86 74
0.05182 0.29332 -0.68388 94 84 71
0.05136 0.29364 -0.68265 92 81 65
0.05165 0.29238 -0.68518 106 95 84
0.05221 0.29185 -0.68484 111 98 87
0.05170 0.29257 -0.68444 106 95 82
0.05226 0.29203 -0.68410 112 98 87
0.05227 0.29262 -0.68421 105 94 79
0.05243 0.29277 -0.68359 102 91 72
0.05192 0.29172 -0.68534 105 95 84
0.05140 0.29108 -0.68552 97 90 77
0.05287 0.29207 -0.68391 109 97 85
0.05235 0.29142 -0.68409 113 101 88
0.05289 0.29148 -0.68383 114 101 90
0.05173 0.29119 -0.68505 100 92 80
0.05121 0.29054 -0.68523 98 87 72
0.05215 0.29128 -0.68468 107 98 85
0.06176 0.28926 -0.68906 107 94 84
-0.01471 0.27895 -0.69014 111 105 90
-0.01521 0.27943 -0.69045 117 115 103
-0.01473 0.27948 -0.69022 114 111 100
-0.01470 0.27843 -0.69007 108 100 82
-0.01425 0.27953 -0.68998 113 107 94
-0.01422 0.27848 -0.68984 108 99 86
0.00466 0.28532 -0.66710 111 104 88
0.00423 0.28478 -0.66725 110 105 99
0.00465 0.28581 -0.66716 111 99 75
0.00468 0.28482 -0.66703 111 106 99
0.00509 0.28585 -0.66695 111 100 74
0.00625 0.28364 -0.66723 114 104 85
0.00578 0.28409 -0.66752 114 105 91
0.00580 0.28359 -0.66745 114 106 91
0.00623 0.28413 -0.66730 113 105 88
0.00634 0.28385 -0.66659 114 101 80
0.00677 0.28438 -0.66644 111 101 78
0.00679 0.28389 -0.66637 113 100 80
0.00606 0.28247 -0.66924 114 108 82
0.00650 0.28301 -0.66909 115 108 92
0.00619 0.28266 -0.66862 114 109 88
0.00602 0.28300 -0.66764 114 107 84
0.00649 0.28304 -0.66744 115 103 74
0.00696 0.28259 -0.66715 114 96 67
0.00649 0.28329 -0.66668 115 100 68
0.00696 0.28284 -0.66639 114 96 59
0.00635 0.28361 -0.66575 115 99 64
0.00680 0.28365 -0.66553 115 99 63
0.00681 0.28316 -0.66546 115 97 60
-0.00052 0.28116 -0.67277 115 105 87
-0.00100 0.28161 -0.67306 114 106 94
-0.00098 0.28111 -0.67299 115 104 84
-0.00009 0.28171 -0.67262 118 113 96
0.00009 0.28112 -0.67277 116 109 92
0.00053 0.28167 -0.67261 117 112 95
0.00056 0.28067 -0.67248 116 102 89
0.00545 0.28200 -0.66918 112 103 83
0.00593 0.28155 -0.66889 114 100 79
0.00580 0.28210 -0.66883 112 101 78
0.00627 0.28164 -0.66854 112 99 74
0.00612 0.28221 -0.66844 112 101 75
0.00659 0.28175 -0.66815 112 99 71
0.00617 0.28244 -0.66773 115 102 76
0.00664 0.28199 -0.66745 113 100 73
0.00652 0.28254 -0.66738 116 99 74
0.00698 0.28209 -0.66709 111 99 77
-0.00778 0.28195 -0.67020 118 110 89
-0.00085 0.28055 -0.67308 111 100 81
-0.00037 0.28010 -0.67279 114 97 75
-0.00051 0.28066 -0.67270 112 101 81
-0.00819 0.28141 -0.67038 115 106 86
-0.00774 0.28145 -0.67016 114 105 85
-0.00728 0.28101 -0.66988 113 94 70
-0.00115 0.27993 -0.67342 113 104 82
-0.00159 0.27938 -0.67357 114 103 78
-0.00113 0.27943 -0.67335 112 101 77
-0.00067 0.27947 -0.67313 111 97 73
0.00008 0.28014 -0.67257 116 97 76
0.00010 0.27964 -0.67250 110 97 68
0.00056 0.27969 -0.67228 110 98 69
-0.00817 0.28092 -0.67031 113 100 74
-0.00860 0.28039 -0.67045 108 97 73
-0.00815 0.28044 -0.67024 111 98 74
-0.00771 0.28048 -0.67003 112 96 76
-0.00279 0.28157 -0.66451 111 97 66
-0.00324 0.28200 -0.66479 110 93 70
-0.00323 0.28152 -0.66472 112 94 68
-0.00281 0.28204 -0.66458 112 93 64
-0.00237 0.28209 -0.66437 112 93 63
-0.00365 0.28154 -0.66332 111 99 78
-0.00406 0.28102 -0.66346 110 99 82
-0.00363 0.28107 -0.66325 112 99 84
-0.00320 0.28111 -0.66304 114 102 84
-0.00299 0.28147 -0.66340 111 101 78
-0.00254 0.28104 -0.66313 115 103 83
-0.00683 0.28195 -0.66137 112 101 82
-0.00725 0.28191 -0.66158 113 101 80
-0.00681 0.28149 -0.66131 115 106 88
-0.00642 0.28246 -0.66123 111 95 79
-0.00640 0.28200 -0.66117 110 99 80
-0.00655 0.28162 -0.66089 113 102 85
-0.00613 0.28166 -0.66069 110 98 80
-0.00611 0.28120 -0.66062 112 98 79
