ply
format ascii 1.0
element face 0
property list uchar int vertex_indices
element vertex 1146
property float x
property float y
property float z
property uchar diffuse_red
property uchar diffuse_green
property uchar diffuse_blue
end_header
0.06094 0.47209 -1.08340 140 126 120
0.06097 0.47295 -1.08346 141 128 123
0.06179 0.47294 -1.08317 147 133 124
0.06176 0.47208 -1.08311 147 135 124
0.06009 0.47124 -1.08367 121 111 103
0.06080 0.47099 -1.08234 139 125 115
0.06160 0.47095 -1.08193 146 134 123
0.06245 0.47180 -1.08170 150 136 121
0.06242 0.47094 -1.08164 151 136 124
0.06239 0.47008 -1.08159 148 133 125
0.05990 0.47001 -1.08202 122 109 102
0.06065 0.46985 -1.08112 138 124 115
0.06147 0.46986 -1.08090 145 132 123
0.05969 0.46875 -1.08026 121 108 97
0.06042 0.46858 -1.07928 136 123 111
0.06127 0.46866 -1.07935 144 132 122
0.06205 0.46780 -1.07901 147 138 126
0.06212 0.46874 -1.07946 146 134 125
0.06293 0.46873 -1.07918 151 139 127
0.06291 0.46788 -1.07912 151 139 129
0.05957 0.46771 -1.07937 120 107 96
0.05873 0.46687 -1.07960 110 100 98
0.06026 0.46745 -1.07802 135 124 107
0.06109 0.46749 -1.07793 143 134 118
0.05950 0.46677 -1.07893 118 105 101
0.05867 0.46593 -1.07916 111 102 98
0.06024 0.46663 -1.07804 135 123 111
0.06106 0.46664 -1.07787 145 134 119
0.06184 0.46579 -1.07753 149 135 120
0.06196 0.46682 -1.07842 148 137 123
0.06277 0.46682 -1.07814 149 139 127
0.06274 0.46597 -1.07808 151 140 124
0.05947 0.46591 -1.07881 116 105 99
0.05863 0.46507 -1.07904 111 104 93
0.05944 0.46506 -1.07876 115 105 92
0.06025 0.46584 -1.07828 135 122 113
0.06111 0.46595 -1.07852 146 133 120
0.06189 0.46509 -1.07818 148 136 120
0.06029 0.46514 -1.07890 132 119 108
0.06026 0.46429 -1.07885 129 116 107
0.06107 0.46429 -1.07856 143 130 119
0.06117 0.46529 -1.07931 144 132 118
0.06196 0.46443 -1.07896 147 135 122
0.01680 0.43889 -0.97487 169 157 141
0.01630 0.43944 -0.97509 168 158 143
0.01629 0.43890 -0.97505 169 158 144
0.01627 0.43835 -0.97502 166 153 137
0.01682 0.43944 -0.97491 169 158 144
0.01734 0.43943 -0.97472 167 155 143
0.01778 0.43919 -0.97600 163 151 132
0.01830 0.43919 -0.97582 150 136 114
0.01677 0.43842 -0.97519 165 151 135
0.01623 0.43788 -0.97534 147 129 115
0.01727 0.43787 -0.97497 146 126 115
0.01815 0.43941 -0.97956 149 137 114
0.01814 0.43885 -0.97952 138 125 104
0.01870 0.43996 -0.97941 135 123 98
0.01855 0.43956 -0.98286 126 119 97
0.01799 0.43900 -0.98302 123 105 92
0.01911 0.44012 -0.98271 122 116 89
0.01909 0.43956 -0.98267 117 112 92
0.01907 0.43899 -0.98264 122 112 97
0.06363 0.46210 -1.07939 155 141 127
0.06447 0.46295 -1.07915 153 142 129
0.06444 0.46209 -1.07910 154 143 128
0.06441 0.46124 -1.07904 155 141 129
0.08462 0.45999 -1.06678 164 150 136
0.08379 0.45915 -1.06701 160 149 132
0.08537 0.45993 -1.06627 174 163 149
0.08614 0.45908 -1.06593 176 165 152
0.08424 0.45876 -1.06488 163 151 137
0.08494 0.45865 -1.06414 174 162 151
0.08571 0.45781 -1.06381 176 163 155
0.08378 0.45745 -1.06258 159 147 134
0.08728 0.45777 -1.06315 177 171 159
0.08648 0.45778 -1.06343 176 165 154
0.08731 0.45861 -1.06320 179 171 163
0.08810 0.45860 -1.06292 175 172 162
0.08807 0.45776 -1.06287 177 175 167
0.08804 0.45693 -1.06281 176 174 160
0.08577 0.45624 -1.05996 175 165 155
0.08682 0.45649 -1.06096 178 173 157
0.08758 0.45566 -1.06063 178 176 162
0.12443 0.42875 -0.90706 199 194 173
0.12397 0.42828 -0.90719 198 194 171
0.08558 0.45524 -1.05906 174 168 156
0.08661 0.45548 -1.06002 179 174 161
0.08737 0.45465 -1.05969 175 175 160
0.08542 0.45429 -1.05837 172 166 155
0.08639 0.45446 -1.05901 174 169 157
0.08714 0.45363 -1.05868 177 175 164
0.12128 0.42645 -0.90076 224 219 199
0.12170 0.42600 -0.90058 224 218 199
0.08522 0.45329 -1.05744 174 164 150
0.08615 0.45344 -1.05793 176 168 157
0.08691 0.45261 -1.05760 180 173 167
0.10720 0.41968 -0.87109 176 165 150
0.08510 0.45238 -1.05693 175 162 151
0.08603 0.45252 -1.05741 177 169 159
0.08678 0.45169 -1.05708 181 171 163
0.09560 0.45537 -1.07003 177 167 163
0.09475 0.45452 -1.07027 182 177 167
0.10690 0.41923 -0.87066 175 165 149
0.08325 0.45132 -1.05607 165 152 136
0.09550 0.45445 -1.06965 178 169 166
0.09465 0.45360 -1.06989 181 177 169
0.11039 0.43532 -0.96006 149 151 152
0.08300 0.45028 -1.05485 165 151 135
0.09519 0.45335 -1.06837 177 172 167
0.09435 0.45250 -1.06860 181 176 167
0.10995 0.43452 -0.95902 126 130 136
0.05795 0.44786 -1.05302 131 119 115
0.05723 0.44865 -1.05334 117 105 100
0.05721 0.44787 -1.05329 116 104 104
0.05798 0.44864 -1.05308 133 122 111
0.05872 0.44864 -1.05281 144 132 118
0.05877 0.44796 -1.05337 141 131 120
0.05954 0.44874 -1.05315 148 136 120
0.05961 0.44811 -1.05397 145 134 119
0.06039 0.44889 -1.05376 148 137 122
0.06036 0.44811 -1.05370 148 137 123
0.06033 0.44732 -1.05365 147 135 120
0.08274 0.44924 -1.05357 162 149 133
0.09506 0.45240 -1.06783 177 170 163
0.09421 0.45156 -1.06807 183 171 158
0.05781 0.44689 -1.05194 126 119 108
0.05859 0.44694 -1.05199 139 129 116
0.05941 0.44705 -1.05240 145 132 118
0.06013 0.44626 -1.05209 146 134 119
0.08257 0.44830 -1.05279 159 149 134
0.09506 0.45157 -1.06791 177 169 156
0.09421 0.45072 -1.06814 182 173 164
0.11835 0.42300 -0.89714 215 210 191
0.11875 0.42256 -0.89696 219 214 194
0.03500 0.43442 -0.99044 166 160 142
0.03445 0.43502 -0.99069 158 152 134
0.03443 0.43442 -0.99065 156 152 134
0.03502 0.43502 -0.99048 168 161 146
0.03560 0.43501 -0.99028 177 168 155
0.03558 0.43441 -0.99024 176 166 152
0.03617 0.43501 -0.99008 183 173 163
0.03615 0.43440 -0.99004 183 172 163
0.03613 0.43380 -0.99000 184 170 162
0.05772 0.44601 -1.05131 126 115 102
0.05847 0.44601 -1.05110 137 128 112
0.05925 0.44606 -1.05120 143 131 115
0.03500 0.43387 -0.99073 167 159 140
0.03555 0.43326 -0.99049 175 165 153
0.03557 0.43386 -0.99052 177 165 151
0.03612 0.43325 -0.99028 183 170 163
0.05768 0.44520 -1.05110 126 113 100
0.05839 0.44514 -1.05057 137 126 107
0.05911 0.44510 -1.05010 138 129 110
0.05982 0.44431 -1.04978 141 129 115
0.05980 0.44502 -1.04946 142 132 114
0.06056 0.44579 -1.04925 146 136 120
0.06054 0.44502 -1.04920 145 135 117
0.06051 0.44424 -1.04915 145 131 116
0.10846 0.41757 -0.87521 213 205 188
0.10809 0.41720 -0.87531 214 206 190
0.10854 0.41749 -0.87470 206 196 180
0.10828 0.41715 -0.87495 213 203 188
0.10791 0.41678 -0.87505 212 205 189
0.10854 0.41712 -0.87469 206 195 182
0.10809 0.41670 -0.87225 173 164 148
0.10821 0.41664 -0.87182 185 177 161
0.10855 0.41627 -0.87167 189 180 165
0.01629 0.42730 -0.96655 152 147 126
0.01581 0.42783 -0.96676 149 137 133
0.01580 0.42731 -0.96673 147 137 124
0.01578 0.42678 -0.96669 146 137 126
0.01631 0.42783 -0.96658 156 148 139
0.01681 0.42782 -0.96641 166 156 143
0.01678 0.42733 -0.96656 162 154 132
0.01730 0.42785 -0.96641 170 157 143
0.01728 0.42732 -0.96638 167 156 137
0.01727 0.42680 -0.96634 167 156 140
0.09619 0.44581 -1.05809 171 158 150
0.10888 0.41695 -0.87578 210 202 186
0.10851 0.41657 -0.87588 212 205 188
0.10928 0.41696 -0.87572 204 194 180
0.10838 0.41641 -0.87263 174 164 147
0.10849 0.41635 -0.87218 186 176 160
0.10882 0.41598 -0.87204 187 178 166
0.01622 0.42697 -0.96777 152 143 131
0.01570 0.42645 -0.96791 149 137 130
0.01673 0.42695 -0.96746 162 151 138
0.01721 0.42642 -0.96725 170 155 142
0.08289 0.44321 -1.05078 165 154 136
0.08364 0.44319 -1.05043 165 159 144
0.08444 0.44322 -1.05036 169 165 154
0.08517 0.44241 -1.05004 171 166 154
0.09658 0.44527 -1.05979 173 156 153
0.09794 0.44567 -1.06190 187 179 164
0.09872 0.44482 -1.06157 187 181 168
0.09889 0.44576 -1.06222 189 183 168
0.09966 0.44491 -1.06188 188 182 171
0.10881 0.44634 -1.06301 200 200 184
0.10796 0.44549 -1.06324 204 206 193
0.10907 0.41663 -0.87604 210 201 184
0.10870 0.41625 -0.87614 212 204 187
0.10962 0.41667 -0.87619 203 193 176
0.10814 0.41589 -0.87171 186 176 164
0.10848 0.41553 -0.87156 188 178 167
0.01619 0.42650 -0.96806 152 142 133
0.01567 0.42597 -0.96820 151 139 128
0.01670 0.42646 -0.96767 163 150 140
0.01718 0.42593 -0.96746 170 154 140
0.08281 0.44237 -1.05045 166 153 140
0.08356 0.44235 -1.05014 164 156 146
0.08436 0.44237 -1.05004 171 164 153
0.08509 0.44156 -1.04972 174 168 163
0.09668 0.44453 -1.06030 171 157 148
0.09808 0.44494 -1.06256 184 178 161
0.10908 0.41625 -0.87605 209 201 182
0.10957 0.41629 -0.87611 201 191 171
0.10800 0.41550 -0.87151 188 176 166
0.10834 0.41513 -0.87136 188 178 164
0.10784 0.41500 -0.86839 180 167 158
0.10817 0.41464 -0.86824 181 167 157
0.01622 0.42581 -0.96697 154 143 128
0.01570 0.42529 -0.96711 148 136 132
0.01620 0.42528 -0.96694 151 138 134
0.01670 0.42528 -0.96676 162 148 141
0.01672 0.42580 -0.96677 164 150 136
0.01720 0.42527 -0.96656 169 156 144
0.08269 0.44149 -1.04995 164 151 144
0.08343 0.44068 -1.04963 163 157 148
0.08345 0.44148 -1.04967 163 158 146
0.08423 0.44149 -1.04951 170 164 156
0.09677 0.44377 -1.06074 167 155 150
0.09812 0.44415 -1.06280 184 176 165
0.09890 0.44329 -1.06246 183 178 168
0.10857 0.41585 -0.87596 211 203 187
0.10822 0.41623 -0.87611 211 205 190
0.10821 0.41585 -0.87608 211 205 188
0.10820 0.41547 -0.87606 210 203 186
0.10891 0.41584 -0.87581 207 199 179
0.10793 0.41512 -0.87140 188 177 164
0.10826 0.41475 -0.87126 188 176 162
0.05797 0.44042 -1.05510 118 106 108
0.05870 0.44038 -1.05461 132 118 122
0.08259 0.44063 -1.04949 163 153 144
0.08332 0.43982 -1.04916 166 156 144
0.08413 0.44063 -1.04907 167 160 152
0.08499 0.44070 -1.04929 175 167 158
0.08578 0.44149 -1.04908 174 168 166
0.08575 0.44069 -1.04902 174 166 163
0.08572 0.43989 -1.04897 174 169 159
0.09670 0.44290 -1.06054 167 155 147
0.09793 0.44319 -1.06206 182 176 164
0.09871 0.44233 -1.06172 183 179 164
0.10834 0.41486 -0.87195 188 176 163
0.10868 0.41449 -0.87181 187 175 166
0.05554 0.43944 -1.05443 115 107 97
0.05477 0.43866 -1.05464 118 113 106
0.05795 0.43964 -1.05515 118 105 105
0.05718 0.43886 -1.05537 109 97 93
0.05869 0.43962 -1.05476 132 117 120
0.05945 0.43961 -1.05453 139 125 120
0.06020 0.43961 -1.05426 141 130 114
0.06017 0.43881 -1.05421 139 130 114
0.10821 0.41446 -0.87176 187 175 164
0.10854 0.41409 -0.87162 186 175 163
0.05865 0.43881 -1.05459 131 118 113
0.05943 0.43883 -1.05453 137 125 113
0.06015 0.43803 -1.05421 138 129 111
0.12117 0.43263 -0.99477 158 158 148
0.10634 0.41409 -0.87218 202 196 178
0.10610 0.41394 -0.87125 192 184 166
0.05859 0.43797 -1.05423 127 118 103
0.05931 0.43717 -1.05391 134 128 105
0.05937 0.43800 -1.05420 135 128 108
0.06009 0.43720 -1.05389 138 131 109
0.10550 0.41361 -0.87160 207 201 181
0.10516 0.41397 -0.87175 209 202 181
0.10515 0.41361 -0.87172 209 202 182
0.10514 0.41325 -0.87170 207 200 183
0.10589 0.41362 -0.87155 202 193 176
0.10463 0.43813 -1.04807 192 192 180
0.10490 0.43784 -1.04598 187 186 175
0.10518 0.43720 -1.04702 184 185 172
0.10592 0.43637 -1.04669 175 175 167
0.10579 0.43710 -1.04618 180 182 171
0.10648 0.43705 -1.04561 187 188 177
0.10492 0.43626 -1.04615 179 180 171
0.10624 0.43613 -1.04480 183 184 172
0.10698 0.43531 -1.04448 193 192 182
0.10658 0.43590 -1.04301 193 193 184
0.10737 0.43669 -1.04279 195 195 183
0.10734 0.43589 -1.04274 194 195 188
0.10732 0.43508 -1.04269 192 193 181
0.08198 0.43473 -1.04699 156 146 133
0.08293 0.43486 -1.04773 159 151 135
0.08382 0.43495 -1.04811 166 158 141
0.08467 0.43500 -1.04828 169 162 148
0.08545 0.43579 -1.04806 170 161 157
0.08543 0.43499 -1.04801 170 163 150
0.08540 0.43419 -1.04795 168 163 150
0.10473 0.43536 -1.04549 183 183 169
0.10547 0.43454 -1.04516 180 182 169
0.08198 0.43396 -1.04709 152 145 132
0.08293 0.43409 -1.04782 157 150 136
0.08382 0.43417 -1.04817 162 153 137
0.08455 0.43336 -1.04785 165 163 143
0.08465 0.43421 -1.04830 167 159 141
0.08539 0.43340 -1.04798 168 162 150
0.08204 0.43323 -1.04749 148 143 123
0.08300 0.43335 -1.04821 156 150 131
0.08387 0.43342 -1.04852 162 156 138
0.05881 0.43204 -1.05057 132 122 110
0.05953 0.43125 -1.05026 135 125 107
0.08210 0.43249 -1.04788 148 143 118
0.08304 0.43260 -1.04853 155 149 125
0.08390 0.43266 -1.04873 160 154 135
0.08471 0.43268 -1.04871 165 161 138
0.08547 0.43267 -1.04844 166 160 143
0.08544 0.43187 -1.04839 163 162 146
0.09264 0.43418 -1.05849 160 149 144
0.09182 0.43336 -1.05871 159 159 149
0.09293 0.43388 -1.05602 144 131 123
0.05201 0.43303 -1.08042 132 127 114
0.05123 0.43389 -1.08076 154 148 134
0.05120 0.43304 -1.08071 155 150 134
0.05118 0.43219 -1.08065 154 148 136
0.05204 0.43388 -1.08048 132 126 115
0.05285 0.43387 -1.08019 114 106 102
0.10692 0.43085 -1.04752 173 176 160
0.09922 0.42903 -1.04084 164 161 142
0.09843 0.42825 -1.04106 162 162 142
0.09919 0.42824 -1.04079 160 161 143
0.09994 0.42823 -1.04052 167 166 149
0.10788 0.43047 -1.05098 160 159 139
0.10902 0.43061 -1.05195 167 163 143
0.05191 0.43125 -1.07967 133 127 121
0.10725 0.42973 -1.05186 154 150 129
0.10872 0.43001 -1.05401 146 141 116
0.10962 0.43005 -1.05409 146 141 117
0.11039 0.42920 -1.05375 147 142 122
0.08327 0.42759 -1.04613 156 145 128
0.08408 0.42761 -1.04611 159 153 138
0.08481 0.42681 -1.04580 158 152 139
0.08967 0.42772 -1.04564 157 145 133
0.08889 0.42693 -1.04585 156 148 129
0.09042 0.42770 -1.04531 139 129 116
0.09204 0.42813 -1.04880 109 93 91
0.09280 0.42812 -1.04853 111 91 99
0.10756 0.42904 -1.05302 153 148 131
0.10832 0.42820 -1.05268 142 144 129
0.10888 0.42926 -1.05464 145 140 123
0.10965 0.42841 -1.05430 147 146 129
0.10976 0.42928 -1.05462 146 143 122
0.11053 0.42843 -1.05429 149 144 125
0.08317 0.42675 -1.04571 151 144 127
0.08390 0.42595 -1.04539 155 148 136
0.08403 0.42681 -1.04598 155 151 136
0.08476 0.42600 -1.04566 157 149 141
0.08997 0.42708 -1.04704 156 145 127
0.08918 0.42629 -1.04726 157 147 133
0.09072 0.42707 -1.04673 141 129 115
0.09174 0.42719 -1.04757 111 92 88
0.09250 0.42718 -1.04730 111 91 96
0.10825 0.42851 -1.05555 151 150 136
0.10902 0.42766 -1.05521 143 141 126
0.05702 0.42497 -1.04287 115 101 89
0.05627 0.42422 -1.04308 105 96 84
0.05774 0.42496 -1.04252 125 113 103
0.05845 0.42494 -1.04220 130 118 110
0.05915 0.42417 -1.04190 132 123 108
0.09032 0.42647 -1.04870 154 144 125
0.08953 0.42567 -1.04892 154 148 133
0.09114 0.42649 -1.04866 142 128 110
0.09173 0.42640 -1.04762 110 89 82
0.09250 0.42639 -1.04735 108 87 90
0.10900 0.42798 -1.05831 143 141 129
0.11277 0.41539 -0.93790 144 139 123
0.11223 0.41486 -0.93805 140 138 127
0.05687 0.42409 -1.04164 109 100 88
0.05612 0.42334 -1.04185 103 95 89
0.05759 0.42409 -1.04145 120 111 99
0.05831 0.42408 -1.04119 128 119 107
0.05901 0.42331 -1.04089 136 125 107
0.08328 0.42526 -1.04643 152 145 128
0.08404 0.42525 -1.04616 156 150 133
0.09083 0.42592 -1.05102 152 143 125
0.09003 0.42512 -1.05124 153 147 132
0.09173 0.42598 -1.05131 140 126 110
0.09209 0.42577 -1.04925 110 88 83
0.09286 0.42576 -1.04898 111 82 86
0.09326 0.42558 -1.04713 142 122 115
0.10863 0.42732 -1.06021 145 144 137
0.10967 0.42741 -1.06074 133 132 127
0.11080 0.42752 -1.06158 140 139 127
0.11164 0.42837 -1.06135 151 148 130
0.11161 0.42751 -1.06129 146 147 130
0.11158 0.42665 -1.06124 146 142 134
0.11120 0.41487 -0.93840 149 146 135
0.11066 0.41433 -0.93854 150 149 140
0.11169 0.41432 -0.93818 142 141 127
0.11126 0.41475 -0.93728 143 141 129
0.11175 0.41421 -0.93706 138 140 126
0.11227 0.41474 -0.93688 140 140 131
0.05674 0.42323 -1.04068 107 99 93
0.05600 0.42249 -1.04089 101 96 91
0.05747 0.42323 -1.04049 120 111 100
0.05818 0.42322 -1.04017 131 121 106
0.05887 0.42246 -1.03987 133 124 107
0.08348 0.42458 -1.04749 151 143 128
0.09134 0.42537 -1.05341 151 144 128
0.09054 0.42455 -1.05363 149 143 132
0.09229 0.42544 -1.05390 141 128 118
0.09262 0.42522 -1.05163 111 89 87
0.09340 0.42521 -1.05136 108 80 87
0.09354 0.42492 -1.04836 142 119 118
0.10917 0.42669 -1.06224 134 136 122
0.11018 0.42676 -1.06262 128 130 121
0.11123 0.42684 -1.06316 137 137 129
0.11269 0.41430 -0.93774 139 140 130
0.11215 0.41377 -0.93789 140 139 125
0.05070 0.42306 -1.04803 110 101 94
0.05140 0.42228 -1.04772 107 99 89
0.09189 0.42481 -1.05595 151 144 129
0.09281 0.42486 -1.05625 138 126 113
0.10823 0.42613 -1.06543 169 170 151
0.10928 0.42621 -1.06598 152 153 134
0.11183 0.41328 -0.93848 146 142 123
0.10716 0.42465 -1.06833 162 156 144
0.12818 0.41446 -0.95321 171 173 153
0.12760 0.41387 -0.95338 172 173 154
0.10733 0.42385 -1.06902 157 157 137
0.10831 0.42389 -1.06928 166 163 141
0.10906 0.42385 -1.06868 167 163 142
0.10992 0.42385 -1.06848 149 146 127
0.11792 0.41517 -0.97011 155 154 128
0.11106 0.41204 -0.93687 178 181 163
0.10760 0.42308 -1.07009 157 156 133
0.10845 0.42307 -1.06987 163 160 137
0.10917 0.42303 -1.06915 161 157 135
0.11028 0.42311 -1.06985 143 140 121
0.11109 0.42222 -1.06949 121 115 98
0.11104 0.41150 -0.93683 178 180 167
0.10867 0.42228 -1.07074 154 150 129
0.10945 0.42225 -1.07023 143 140 122
0.11026 0.42136 -1.06988 119 115 94
0.11082 0.42242 -1.07188 125 122 105
0.11224 0.42231 -1.07035 130 123 105
0.11305 0.42142 -1.06999 134 129 113
0.11857 0.41393 -0.97003 146 146 124
0.11936 0.41396 -0.97024 145 147 129
0.11993 0.41395 -0.96997 146 145 131
0.11082 0.41103 -0.93763 174 176 164
0.11061 0.41088 -0.93594 172 173 161
0.11419 0.41105 -0.93713 126 131 123
0.08365 0.41949 -1.05307 134 129 109
0.08291 0.42031 -1.05339 137 126 111
0.08288 0.41950 -1.05334 135 127 108
0.08285 0.41868 -1.05329 134 126 105
0.10102 0.42114 -1.06928 104 103 82
0.10199 0.42118 -1.06958 107 104 83
0.10279 0.42030 -1.06923 108 102 85
0.10324 0.42132 -1.07095 110 106 88
0.10404 0.42043 -1.07060 110 104 84
0.10904 0.42153 -1.07218 135 131 114
0.10985 0.42063 -1.07182 127 123 103
0.10987 0.42151 -1.07184 125 120 103
0.11068 0.42062 -1.07148 128 122 101
0.10928 0.41020 -0.93441 142 146 144
0.11537 0.41063 -0.93827 128 129 125
0.11610 0.41056 -0.93732 122 124 114
0.04622 0.41623 -1.03051 163 158 141
0.04693 0.41625 -1.03069 158 153 131
0.08347 0.41861 -1.05221 136 127 105
0.08267 0.41780 -1.05243 135 124 108
0.10194 0.42030 -1.06943 107 101 84
0.10947 0.42079 -1.07387 126 119 100
0.11029 0.41989 -1.07352 129 123 104
0.11667 0.41012 -0.93844 110 112 107
0.02911 0.41223 -0.99163 169 159 135
0.02856 0.41284 -0.99187 171 164 137
0.02854 0.41224 -0.99183 171 161 139
0.02851 0.41163 -0.99179 170 158 136
0.02909 0.41162 -0.99159 168 157 133
0.02970 0.41283 -0.99146 162 151 125
0.02968 0.41222 -0.99144 163 152 128
0.03028 0.41282 -0.99128 151 140 116
0.03026 0.41222 -0.99124 154 142 121
0.03085 0.41282 -0.99107 147 136 114
0.03083 0.41221 -0.99104 149 136 115
0.03081 0.41161 -0.99100 150 136 111
0.04608 0.41539 -1.02899 162 157 140
0.04538 0.41468 -1.02919 165 158 143
0.04606 0.41467 -1.02894 162 156 140
0.04679 0.41542 -1.02917 157 153 132
0.04740 0.41534 -1.02800 146 142 121
0.06560 0.41403 -1.00710 137 127 112
0.06627 0.41470 -1.00692 138 127 113
0.06624 0.41402 -1.00687 138 129 113
0.06622 0.41334 -1.00683 136 128 110
0.07846 0.41734 -1.04737 132 121 101
0.07773 0.41815 -1.04769 127 120 101
0.07770 0.41735 -1.04764 127 117 97
0.07768 0.41656 -1.04759 127 117 100
0.07924 0.41813 -1.04715 142 132 107
0.07921 0.41734 -1.04710 141 131 109
0.08316 0.41768 -1.05076 134 126 105
0.08237 0.41688 -1.05098 133 126 107
0.08313 0.41687 -1.05071 133 129 106
0.08414 0.41776 -1.05156 127 119 90
0.10182 0.41940 -1.06901 114 108 91
0.10096 0.41854 -1.06925 117 108 89
0.10179 0.41853 -1.06896 116 110 93
0.10262 0.41852 -1.06866 117 110 93
0.10296 0.41949 -1.06995 115 109 88
0.10376 0.41860 -1.06960 121 114 95
0.10806 0.42001 -1.07561 122 112 85
0.10718 0.41912 -1.07585 122 112 84
0.10888 0.41911 -1.07525 126 116 97
0.10890 0.42000 -1.07526 125 115 92
0.10964 0.41995 -1.07455 127 118 96
0.11046 0.41905 -1.07419 129 120 102
0.02965 0.41155 -0.99044 164 154 127
0.02906 0.41095 -0.99060 169 156 135
0.03022 0.41154 -0.99024 156 145 119
0.03077 0.41093 -0.98999 149 137 114
0.04667 0.41460 -1.02782 156 152 136
0.04597 0.41389 -1.02802 163 156 138
0.04734 0.41459 -1.02754 146 141 128
0.06493 0.41335 -1.00728 131 121 105
0.06427 0.41268 -1.00747 127 116 98
0.06555 0.41267 -1.00701 136 124 105
0.06558 0.41335 -1.00706 135 125 108
0.06620 0.41266 -1.00678 134 126 104
0.07840 0.41654 -1.04716 131 121 104
0.07762 0.41575 -1.04737 124 116 97
0.07910 0.41651 -1.04660 139 130 111
0.07988 0.41729 -1.04638 137 127 105
0.07990 0.41651 -1.04655 135 128 110
0.08068 0.41730 -1.04634 133 123 106
0.08065 0.41651 -1.04629 132 122 108
0.08062 0.41571 -1.04623 128 123 97
0.10828 0.40818 -0.92871 140 147 141
0.10832 0.40810 -0.92763 146 154 143
0.02962 0.41090 -0.98972 165 152 132
0.02903 0.41030 -0.98988 170 157 141
0.03019 0.41089 -0.98951 156 143 122
0.03074 0.41028 -0.98927 149 136 119
0.04654 0.41378 -1.02640 156 151 136
0.04584 0.41308 -1.02660 164 155 138
0.04717 0.41374 -1.02569 146 141 128
0.04776 0.41366 -1.02443 128 122 110
0.04834 0.41357 -1.02303 110 104 94
0.04898 0.41286 -1.02275 102 98 96
0.04901 0.41356 -1.02279 103 97 90
0.04965 0.41285 -1.02251 101 95 96
0.02959 0.41027 -0.98933 167 154 139
0.02900 0.40968 -0.98950 170 158 147
0.03016 0.41027 -0.98913 155 143 128
0.03071 0.40966 -0.98889 148 136 121
0.04638 0.41296 -1.02468 157 151 137
0.04569 0.41226 -1.02487 161 154 140
0.04636 0.41225 -1.02464 155 148 136
0.04703 0.41224 -1.02440 145 139 125
0.04704 0.41293 -1.02420 145 140 125
0.04768 0.41222 -1.02392 127 121 109
0.04819 0.41276 -1.02154 109 103 95
0.04883 0.41205 -1.02126 103 98 93
0.02956 0.40964 -0.98877 167 157 144
0.02897 0.40904 -0.98893 169 159 145
0.03013 0.40963 -0.98857 156 145 131
0.02954 0.40902 -0.98850 167 156 139
0.02895 0.40843 -0.98866 168 158 138
0.02952 0.40843 -0.98846 166 156 132
0.03008 0.40842 -0.98825 156 147 122
0.03010 0.40902 -0.98829 157 146 127
0.03067 0.40901 -0.98809 147 136 120
0.03126 0.40960 -0.98793 147 136 120
0.03124 0.40900 -0.98789 146 135 120
0.03122 0.40841 -0.98785 145 134 114
0.03064 0.40838 -0.98750 147 136 115
0.03005 0.40779 -0.98766 157 148 124
0.03119 0.40778 -0.98726 146 134 112
0.03571 0.40828 -0.98503 150 143 120
0.03516 0.40888 -0.98527 146 139 117
0.03514 0.40829 -0.98523 145 138 115
0.03512 0.40769 -0.98519 146 136 118
0.03573 0.40888 -0.98507 151 145 123
0.03629 0.40887 -0.98487 161 155 134
0.03626 0.40826 -0.98464 160 153 134
0.03685 0.40885 -0.98448 171 162 145
0.03689 0.40834 -0.98579 169 161 147
0.03748 0.40893 -0.98563 174 163 149
0.03746 0.40834 -0.98559 172 162 149
0.03744 0.40774 -0.98555 169 162 145
0.08266 0.41223 -1.04063 118 107 92
0.08191 0.41224 -1.04090 125 115 99
0.08343 0.41300 -1.04042 118 110 83
0.08337 0.41144 -1.04032 112 105 86
0.08363 0.41229 -1.04149 115 107 84
0.08438 0.41228 -1.04122 113 104 80
0.08435 0.41150 -1.04117 112 105 85
0.03567 0.40766 -0.98456 150 142 123
0.03508 0.40708 -0.98472 146 138 119
0.03622 0.40764 -0.98415 159 153 134
0.03685 0.40771 -0.98524 166 160 142
0.03739 0.40711 -0.98500 167 161 144
0.08159 0.41136 -1.03934 125 115 96
0.08087 0.41215 -1.03965 126 118 96
0.08085 0.41137 -1.03960 126 117 98
0.08082 0.41059 -1.03955 126 115 98
0.08156 0.41058 -1.03929 123 115 97
0.08233 0.41136 -1.03912 115 107 88
0.08305 0.41057 -1.03880 111 104 88
0.03562 0.40704 -0.98395 150 143 125
0.03504 0.40645 -0.98411 146 138 115
0.03616 0.40700 -0.98319 156 153 134
0.08200 0.41049 -1.03754 117 110 92
0.08124 0.40972 -1.03775 125 117 97
0.08271 0.40971 -1.03723 112 102 84
0.05722 0.40973 -1.04155 103 93 82
0.05647 0.40898 -1.04176 101 91 82
0.05793 0.40971 -1.04112 113 105 93
0.05865 0.40970 -1.04088 119 112 96
0.05940 0.41046 -1.04067 119 112 100
0.05937 0.40970 -1.04062 120 114 99
0.07081 0.40878 -1.03583 124 116 99
0.07011 0.40954 -1.03614 127 119 98
0.07006 0.40803 -1.03604 122 109 91
0.07083 0.40954 -1.03588 127 120 100
0.07155 0.40953 -1.03563 129 121 102
0.07153 0.40877 -1.03558 125 119 100
0.07078 0.40802 -1.03579 122 111 94
0.07003 0.40727 -1.03599 121 112 90
0.07075 0.40726 -1.03574 121 111 90
0.07148 0.40725 -1.03548 121 113 90
0.10127 0.40230 -0.91435 146 153 134
0.10084 0.40278 -0.91454 150 154 137
0.10082 0.40231 -0.91451 148 153 137
0.10081 0.40184 -0.91448 147 151 139
0.10209 0.40234 -0.91496 140 146 128
0.10253 0.40186 -0.91477 122 125 111
0.10242 0.40232 -0.91455 124 130 112
0.10287 0.40231 -0.91439 113 116 96
0.10530 0.40231 -0.91394 162 165 149
0.10573 0.40183 -0.91375 163 165 145
0.08057 0.40558 -1.03092 118 113 90
0.07982 0.40484 -1.03113 124 117 99
0.08126 0.40482 -1.03062 111 107 86
0.08137 0.40559 -1.03106 112 106 86
0.08211 0.40634 -1.03086 112 102 84
0.08209 0.40559 -1.03081 112 104 87
0.08206 0.40483 -1.03076 109 106 88
0.08009 0.40474 -1.02865 116 112 94
0.07936 0.40400 -1.02885 125 115 99
0.08078 0.40398 -1.02835 111 108 85
0.07789 0.40206 -1.01435 113 107 85
0.07859 0.40276 -1.01416 114 109 90
0.07856 0.40205 -1.01411 112 106 86
0.07854 0.40134 -1.01407 109 105 84
0.05491 0.40126 -1.01042 110 100 83
0.05554 0.40057 -1.01014 112 101 81
0.07703 0.40133 -1.01376 119 110 90
0.07633 0.40063 -1.01395 123 113 93
0.07768 0.40062 -1.01347 107 101 84
0.11368 0.39762 -0.88214 161 154 134
0.11328 0.39722 -0.88225 151 144 129
0.11404 0.39722 -0.88198 164 155 138
0.05492 0.40059 -1.01064 108 99 80
0.05554 0.39990 -1.01037 111 101 79
0.05498 0.39992 -1.01130 107 99 80
0.05560 0.39923 -1.01102 110 103 77
0.07413 0.39984 -1.01008 114 112 89
0.07349 0.40055 -1.01036 115 107 77
0.07347 0.39985 -1.01031 114 108 79
0.07345 0.39915 -1.01027 114 108 81
0.07482 0.40053 -1.00989 121 114 97
0.07479 0.39983 -1.00984 119 115 97
0.07589 0.39980 -1.00824 117 108 90
0.07653 0.39909 -1.00796 108 101 83
0.04937 0.39951 -1.02353 98 91 85
0.05006 0.40021 -1.02334 96 91 81
0.05004 0.39950 -1.02329 96 90 82
0.05002 0.39879 -1.02325 95 88 82
0.05494 0.39924 -1.01115 107 101 79
0.05557 0.39855 -1.01087 110 105 80
0.07378 0.39911 -1.00834 114 110 87
0.07310 0.39843 -1.00853 113 107 83
0.07415 0.39908 -1.00663 119 116 94
0.07478 0.39838 -1.00635 120 115 86
0.07479 0.39907 -1.00633 121 116 94
0.07526 0.39904 -1.00516 115 109 89
0.07588 0.39835 -1.00489 106 102 82
0.04918 0.39877 -1.02165 98 91 85
0.04982 0.39806 -1.02137 94 90 81
0.05470 0.39863 -1.01514 98 91 77
0.05402 0.39794 -1.01532 92 88 74
0.05515 0.39859 -1.01310 106 100 80
0.05578 0.39789 -1.01282 109 103 86
0.07341 0.39839 -1.00649 112 107 84
0.07274 0.39771 -1.00668 113 105 88
0.07339 0.39770 -1.00645 108 105 86
0.07374 0.39835 -1.00459 119 114 89
0.07436 0.39767 -1.00432 119 115 88
0.04765 0.39805 -1.02012 125 119 103
0.04824 0.39803 -1.01901 107 102 88
0.05458 0.39792 -1.01424 97 92 80
0.05390 0.39724 -1.01443 92 88 72
0.05513 0.39790 -1.01303 105 99 86
0.05576 0.39721 -1.01275 106 101 83
0.04820 0.39733 -1.01870 107 102 90
0.04751 0.39664 -1.01889 124 120 105
0.04890 0.39733 -1.01899 97 93 85
0.04954 0.39662 -1.01871 93 88 82
0.05445 0.39722 -1.01320 95 92 77
0.05377 0.39654 -1.01338 91 86 69
0.05510 0.39721 -1.01296 103 99 83
0.05573 0.39652 -1.01269 105 103 80
0.07065 0.39719 -1.01871 112 107 80
0.06999 0.39791 -1.01899 115 105 86
0.06996 0.39719 -1.01895 110 104 79
0.06994 0.39648 -1.01890 109 104 78
0.07062 0.39647 -1.01866 111 103 77
0.07135 0.39789 -1.01851 116 111 90
0.07133 0.39718 -1.01847 113 108 86
0.07203 0.39789 -1.01827 114 109 86
0.07201 0.39717 -1.01822 114 108 87
0.07198 0.39645 -1.01818 114 106 88
0.04879 0.39662 -1.01795 96 91 83
0.04943 0.39592 -1.01767 92 88 76
0.05453 0.39654 -1.01410 95 91 70
0.05385 0.39586 -1.01429 91 86 70
0.05519 0.39653 -1.01387 103 99 76
0.05582 0.39584 -1.01359 108 102 77
0.05470 0.39586 -1.01579 96 90 69
0.05402 0.39518 -1.01598 92 86 73
0.05536 0.39586 -1.01555 105 98 74
0.05600 0.39515 -1.01527 110 99 78
0.04866 0.39523 -1.01689 95 94 78
0.04929 0.39453 -1.01662 88 86 76
0.05474 0.39517 -1.01626 96 90 72
0.05405 0.39448 -1.01645 90 84 74
0.05540 0.39516 -1.01602 105 97 76
0.05604 0.39446 -1.01574 108 99 82
0.04802 0.39454 -1.01755 106 104 86
0.04873 0.39454 -1.01789 94 93 79
0.05471 0.39447 -1.01619 94 88 74
0.05403 0.39378 -1.01638 88 81 74
0.05537 0.39447 -1.01595 102 94 79
0.05601 0.39376 -1.01567 106 98 82
0.13030 0.39352 -0.92077 144 145 122
0.12979 0.39301 -0.92091 149 148 127
0.13029 0.39300 -0.92074 145 144 124
0.13078 0.39300 -0.92057 159 158 137
0.13079 0.39352 -0.92060 160 158 136
0.13127 0.39299 -0.92039 164 164 142
0.04804 0.39385 -1.01807 108 103 91
0.04874 0.39384 -1.01823 94 92 83
0.05461 0.39378 -1.01547 92 83 75
0.05393 0.39309 -1.01566 87 78 71
0.05527 0.39377 -1.01519 100 91 79
0.05274 0.39310 -1.01739 82 80 71
0.05343 0.39379 -1.01720 87 82 75
0.05341 0.39309 -1.01716 83 78 72
0.05447 0.39309 -1.01433 91 80 74
0.05379 0.39241 -1.01452 86 78 67
0.05510 0.39308 -1.01387 100 88 80
0.05573 0.39239 -1.01359 109 97 84
0.05574 0.39308 -1.01351 108 98 84
0.05642 0.39376 -1.01332 108 100 82
0.05639 0.39307 -1.01328 109 100 86
0.05637 0.39238 -1.01323 109 100 86
0.05274 0.39240 -1.01754 77 75 67
0.05336 0.39240 -1.01686 80 76 67
0.05436 0.39240 -1.01354 91 82 70
0.05499 0.39171 -1.01326 100 89 73
0.05496 0.39240 -1.01287 100 90 78
0.05559 0.39171 -1.01259 109 97 81
0.05331 0.39170 -1.01661 79 75 60
0.05383 0.39171 -1.01510 85 78 62
0.05431 0.39172 -1.01326 90 81 65
0.05494 0.39102 -1.01298 96 87 73
0.05233 0.39098 -1.02062 69 69 57
0.05298 0.39026 -1.02033 69 66 54
0.05326 0.39101 -1.01633 77 74 54
0.05378 0.39102 -1.01483 82 76 60
0.05428 0.39103 -1.01314 86 79 65
0.05491 0.39033 -1.01286 93 87 72
0.05315 0.39033 -1.01550 75 68 54
0.05247 0.38964 -1.01569 68 62 57
0.05371 0.39033 -1.01436 81 73 60
0.05423 0.39034 -1.01288 84 78 65
0.05486 0.38965 -1.01261 92 88 68
0.05366 0.38965 -1.01400 78 70 59
0.05417 0.38966 -1.01249 83 77 61
0.05480 0.38897 -1.01222 90 86 67
0.11192 0.39083 -0.88223 147 143 123
0.11153 0.39043 -0.88234 150 146 125
0.11191 0.39043 -0.88221 146 143 120
0.11211 0.39083 -0.88182 144 140 121
0.11173 0.39086 -0.88062 151 148 133
0.11209 0.39046 -0.88046 158 152 139
0.05357 0.38897 -1.01339 75 68 61
0.05406 0.38899 -1.01165 81 75 60
0.05468 0.38830 -1.01137 85 82 67
0.11223 0.39043 -0.88200 142 141 119
0.11184 0.39003 -0.88211 145 145 121
0.11222 0.39003 -0.88197 141 140 118
0.11170 0.39046 -0.88057 151 149 133
0.11173 0.39049 -0.87930 156 149 134
0.11172 0.39009 -0.87927 159 153 138
0.11212 0.39088 -0.87919 151 145 123
0.05274 0.38832 -1.01215 62 59 55
0.05346 0.38830 -1.01252 71 68 59
0.05392 0.38833 -1.01057 77 73 60
0.05454 0.38764 -1.01030 79 75 64
0.06179 0.38894 -0.97552 107 103 86
0.06181 0.38954 -0.97556 109 105 82
0.06238 0.38953 -0.97536 107 104 83
0.06236 0.38894 -0.97532 106 101 82
0.11159 0.39007 -0.88042 150 146 127
0.11120 0.38968 -0.88053 141 139 119
0.11166 0.39008 -0.87985 155 150 134
0.05238 0.38772 -1.00892 56 53 47
0.05314 0.38768 -1.00977 67 65 55
0.06222 0.38836 -0.97457 103 98 80
0.06280 0.38895 -0.97440 106 100 83
0.06278 0.38835 -0.97437 102 99 78
0.06276 0.38776 -0.97433 92 91 71
0.11153 0.38971 -0.87901 154 148 131
0.06184 0.38773 -0.97598 93 90 71
0.11336 0.38914 -0.88426 144 142 123
0.11298 0.38955 -0.88442 149 147 124
0.11297 0.38914 -0.88440 150 146 127
0.11337 0.38955 -0.88428 144 144 124
0.11208 0.38932 -0.87847 153 148 128
0.11244 0.38893 -0.87831 152 148 133
0.11413 0.38866 -0.88606 150 144 127
0.11376 0.38908 -0.88622 153 149 129
0.11374 0.38867 -0.88620 153 146 129
0.11373 0.38825 -0.88617 152 144 124
0.11451 0.38824 -0.88589 142 137 120
0.11202 0.38893 -0.87837 147 143 123
0.11163 0.38855 -0.87848 146 142 125
0.11200 0.38854 -0.87835 145 142 127
0.05378 0.38599 -0.99850 72 66 61
0.05438 0.38533 -0.99824 80 74 65
0.05038 0.38547 -0.99679 82 74 56
0.05036 0.38483 -0.99675 84 76 59
0.05097 0.38482 -0.99653 84 77 60
0.05107 0.38544 -0.99733 81 75 59
0.05166 0.38479 -0.99707 83 76 62
0.05171 0.38542 -0.99733 80 72 60
0.05230 0.38477 -0.99707 82 75 63
0.05236 0.38540 -0.99749 77 70 60
0.05301 0.38538 -0.99754 76 69 61
0.05360 0.38473 -0.99728 84 76 65
0.05357 0.38540 -0.99685 78 71 65
0.05416 0.38474 -0.99659 84 78 66
0.09043 0.38567 -0.96438 143 138 121
0.09097 0.38507 -0.96414 142 138 122
0.05281 0.38480 -0.99594 82 74 64
0.05218 0.38416 -0.99612 87 78 61
0.05279 0.38416 -0.99590 86 77 63
0.05340 0.38415 -0.99568 86 77 62
0.11997 0.38642 -0.90905 145 141 118
0.12041 0.38594 -0.90885 140 139 114
0.12087 0.38583 -0.91136 148 146 127
0.12039 0.38535 -0.91150 149 150 125
0.12044 0.38590 -0.90979 141 140 120
0.12127 0.38530 -0.91200 143 145 126
0.12079 0.38482 -0.91213 147 149 126
0.12092 0.38537 -0.91054 137 138 121
0.12158 0.38535 -0.91070 136 136 111
0.12189 0.38475 -0.91299 140 143 122
0.12188 0.38479 -0.91206 133 136 116
0.12099 0.38427 -0.91336 141 142 123
0.12050 0.38378 -0.91349 137 137 121
0.12097 0.38377 -0.91332 141 140 123
0.12152 0.38425 -0.91330 146 146 126
0.12193 0.38425 -0.91305 137 139 115
0.12218 0.38427 -0.91254 131 132 108
0.09762 0.38238 -0.94331 133 135 114
0.09816 0.38293 -0.94316 131 132 112
0.09814 0.38238 -0.94312 133 135 115
0.11251 0.38154 -0.95085 128 127 102
0.11194 0.38097 -0.95101 132 130 100
0.11249 0.38096 -0.95081 130 126 100
0.11305 0.38096 -0.95061 128 123 95
0.11323 0.38151 -0.95102 125 123 97
0.11377 0.38092 -0.95078 127 123 95
0.11043 0.38564 -0.86776 146 139 125
0.10049 0.37977 -0.96771 139 140 117
0.09993 0.38039 -0.96796 140 137 111
0.09991 0.37978 -0.96792 139 139 116
0.10051 0.38039 -0.96775 139 138 111
0.10110 0.38038 -0.96755 140 141 113
0.10502 0.38059 -0.95112 143 143 114
0.10788 0.38037 -0.95342 147 145 123
0.10841 0.37978 -0.95319 150 150 126
0.11019 0.38067 -0.94711 133 132 98
0.11039 0.38529 -0.86769 144 134 117
0.11003 0.38493 -0.86779 142 133 112
0.11037 0.38492 -0.86767 141 132 111
0.11025 0.38543 -0.86531 140 132 120
0.11060 0.38578 -0.86521 140 131 119
0.11059 0.38543 -0.86519 139 131 119
0.10038 0.37895 -0.97115 141 142 119
0.10052 0.37903 -0.96967 142 143 121
0.10048 0.37915 -0.96771 144 145 126
0.10387 0.38004 -0.95139 153 156 135
0.10494 0.37994 -0.95247 148 151 127
0.10525 0.37997 -0.95169 146 148 118
0.10603 0.37993 -0.95204 147 147 118
0.10965 0.38010 -0.94731 138 138 110
0.10997 0.38013 -0.94663 134 135 105
0.11007 0.38509 -0.86508 143 136 125
0.11006 0.38474 -0.86505 146 137 128
0.10046 0.37830 -0.97138 148 146 124
0.10070 0.37837 -0.97017 150 150 129
0.10069 0.37849 -0.96829 154 156 138
0.10219 0.37948 -0.95187 163 166 146
0.10272 0.37890 -0.95164 166 169 151
0.10294 0.37944 -0.95219 161 165 144
0.10347 0.37886 -0.95196 163 166 146
0.10356 0.37942 -0.95218 162 165 144
0.10439 0.37936 -0.95266 161 164 144
0.10492 0.37877 -0.95243 157 160 137
0.10539 0.37927 -0.95358 157 159 137
0.10556 0.37933 -0.95246 152 155 128
0.10610 0.37875 -0.95223 155 157 134
0.10620 0.37931 -0.95247 151 155 127
0.10967 0.37952 -0.94737 141 142 120
0.11002 0.37955 -0.94675 136 138 112
0.11054 0.37897 -0.94652 139 136 111
0.11005 0.38477 -0.86450 145 134 125
0.11003 0.38442 -0.86447 143 133 123
0.09980 0.37757 -0.97336 158 160 139
0.10029 0.37758 -0.97283 157 156 136
0.10061 0.37764 -0.97183 156 154 134
0.10085 0.37771 -0.97062 159 160 140
0.10091 0.37782 -0.96894 163 166 149
0.10148 0.37719 -0.96869 168 173 152
0.10105 0.37754 -0.96390 167 171 146
0.10133 0.37760 -0.96291 166 169 148
0.10159 0.37766 -0.96188 166 169 151
0.10172 0.37690 -0.96398 171 176 155
0.10209 0.37694 -0.96323 172 176 155
0.11997 0.37991 -0.91258 132 134 114
0.10194 0.37624 -0.96460 177 182 160
0.10250 0.37562 -0.96435 182 185 164
0.10223 0.37630 -0.96361 178 182 160
0.10279 0.37569 -0.96337 180 184 163
0.01869 0.38165 -0.91659 51 57 82
0.01832 0.38206 -0.91675 48 54 84
0.01831 0.38166 -0.91672 49 55 81
0.01829 0.38125 -0.91670 51 56 80
0.01870 0.38206 -0.91661 51 55 82
0.01906 0.38124 -0.91642 95 95 126
0.01909 0.38168 -0.91611 61 67 95
0.01949 0.38208 -0.91600 61 68 96
0.01948 0.38167 -0.91597 95 100 130
0.01946 0.38127 -0.91595 155 154 179
0.11229 0.37193 -0.97392 161 164 149
0.11170 0.37258 -0.97417 169 172 156
0.11167 0.37193 -0.97413 169 171 157
0.11165 0.37129 -0.97409 179 182 163
0.11386 0.36575 -0.97617 211 214 200
0.11450 0.36640 -0.97599 202 207 193
0.11323 0.36510 -0.97639 211 214 196
0.11380 0.36511 -0.97605 205 208 194
0.11270 0.36442 -0.97683 200 203 185
0.11329 0.36376 -0.97657 193 197 178
0.11335 0.36440 -0.97668 199 202 183
0.11394 0.36374 -0.97642 195 198 180
0.11947 0.37286 -0.90129 93 82 58
0.11989 0.37239 -0.90111 89 79 51
0.11928 0.37244 -0.90100 94 84 57
0.11883 0.37198 -0.90112 96 89 61
0.11907 0.37203 -0.90067 94 86 56
0.11971 0.37197 -0.90083 90 80 51
0.12016 0.37243 -0.90070 87 77 52
0.12015 0.37197 -0.90067 87 77 52
0.11854 0.37159 -0.90068 96 88 64
0.11812 0.37205 -0.90087 98 90 63
0.11811 0.37159 -0.90084 100 91 68
0.11809 0.37114 -0.90081 102 92 69
0.11903 0.37100 -0.90142 101 91 67
0.11858 0.37055 -0.90154 103 94 68
0.11902 0.37054 -0.90139 104 94 68
0.12149 0.36973 -0.89943 130 122 101
0.12191 0.36927 -0.89924 130 126 111
0.10771 0.35979 -0.96960 204 207 195
0.10940 0.36052 -0.96368 191 193 179
0.10879 0.35991 -0.96384 186 190 176
0.10938 0.35991 -0.96364 180 185 170
0.10997 0.35990 -0.96343 171 176 162
0.10760 0.35920 -0.96933 198 200 185
0.10818 0.35857 -0.96907 187 190 172
0.12010 0.36883 -0.89659 126 120 101
0.12054 0.36928 -0.89647 129 123 108
0.12073 0.36877 -0.89673 129 123 106
0.12117 0.36922 -0.89661 133 127 111
0.12115 0.36877 -0.89658 132 126 111
0.10688 0.35862 -0.96925 193 196 180
0.10627 0.35800 -0.96942 191 197 182
0.10686 0.35799 -0.96921 189 192 180
0.10731 0.35869 -0.96861 193 196 178
0.10789 0.35805 -0.96836 185 189 173
0.11907 0.36753 -0.89662 110 99 80
0.11863 0.36708 -0.89674 109 96 84
0.11948 0.36707 -0.89644 103 92 76
0.11907 0.36765 -0.89584 104 95 75
0.11920 0.36773 -0.89526 96 90 71
0.11883 0.36673 -0.89318 101 93 74
0.11839 0.36629 -0.89330 104 92 71
0.11881 0.36629 -0.89316 103 92 72
0.11965 0.36660 -0.89362 111 104 87
0.12041 0.36650 -0.89395 125 118 103
0.11996 0.36619 -0.89330 113 108 97
0.12036 0.36619 -0.89312 124 116 104
0.12079 0.36662 -0.89300 131 122 110
0.12126 0.36604 -0.89366 130 121 108
0.12170 0.36648 -0.89353 133 123 111
0.12168 0.36603 -0.89351 133 122 109
0.12167 0.36559 -0.89348 132 121 105
0.11949 0.36576 -0.89337 99 95 74
0.11906 0.36532 -0.89349 101 94 73
0.11947 0.36532 -0.89334 99 94 74
0.12056 0.36568 -0.89340 112 107 92
0.12090 0.36570 -0.89315 126 119 102
0.12010 0.36525 -0.89349 96 90 75
0.11967 0.36481 -0.89361 102 92 74
0.12009 0.36480 -0.89347 99 91 75
0.12098 0.36465 -0.89398 97 91 73
0.12054 0.36421 -0.89410 102 93 70
0.12096 0.36421 -0.89395 98 91 69
0.12143 0.36464 -0.89387 107 103 81
0.12187 0.36463 -0.89375 122 120 99
0.12153 0.36416 -0.89401 96 92 70
0.12110 0.36372 -0.89413 99 89 66
0.12152 0.36371 -0.89398 94 88 68
0.12183 0.36419 -0.89368 112 107 90
0.12229 0.36360 -0.89432 99 94 78
0.12185 0.36316 -0.89444 95 89 74
0.12265 0.36374 -0.89334 125 119 101
0.12309 0.36418 -0.89322 131 121 102
0.12307 0.36374 -0.89319 128 120 104
0.12202 0.36323 -0.89393 94 89 76
0.12158 0.36279 -0.89405 97 92 78
0.12200 0.36279 -0.89390 94 87 78
0.12228 0.36328 -0.89355 102 98 86
0.12253 0.36333 -0.89317 117 112 98
0.12206 0.36304 -0.89251 109 98 91
0.12223 0.36311 -0.89201 122 110 100
0.12267 0.36310 -0.89190 129 117 101
0.12311 0.36354 -0.89178 130 120 101
0.12309 0.36309 -0.89175 130 119 100
0.12308 0.36265 -0.89172 127 115 99
0.12181 0.36267 -0.89215 95 89 81
0.12137 0.36223 -0.89227 98 89 77
0.12179 0.36223 -0.89212 93 87 76
0.12200 0.36274 -0.89169 110 101 94
0.12218 0.36281 -0.89122 125 112 101
0.12195 0.36231 -0.89161 98 91 82
0.12152 0.36188 -0.89173 94 89 78
0.12231 0.36233 -0.89139 116 105 96
0.12271 0.36188 -0.89121 115 108 97
0.12271 0.36233 -0.89122 125 114 99
0.12314 0.36276 -0.89110 125 117 97
0.12313 0.36232 -0.89107 125 117 101
0.12311 0.36188 -0.89104 122 115 102
0.12186 0.36159 -0.89075 93 85 78
0.12143 0.36116 -0.89087 97 86 71
0.12232 0.36157 -0.89067 106 98 87
0.12258 0.36162 -0.89031 119 110 95
0.12301 0.36205 -0.89019 124 117 102
0.12300 0.36161 -0.89016 123 114 98
0.12185 0.36115 -0.89074 92 84 74
0.12142 0.36072 -0.89086 97 84 67
0.12184 0.36071 -0.89071 93 81 71
0.12230 0.36114 -0.89063 96 88 80
0.12241 0.36124 -0.89007 109 102 91
0.12242 0.36065 -0.89079 92 80 75
0.12199 0.36022 -0.89091 96 83 68
0.12241 0.36021 -0.89076 91 81 72
0.12254 0.36031 -0.89023 88 80 73
0.12211 0.35987 -0.89034 94 82 68
0.12252 0.35987 -0.89020 89 77 65
0.08133 0.36578 -0.87776 109 99 87
0.08100 0.36614 -0.87791 109 99 77
0.08098 0.36578 -0.87789 108 101 86
0.08134 0.36614 -0.87779 109 100 75
0.08169 0.36614 -0.87766 107 101 78
0.08168 0.36577 -0.87764 106 98 86
0.08165 0.36542 -0.87757 107 101 90
0.08201 0.36578 -0.87747 105 99 84
0.08198 0.36505 -0.87742 106 100 87
0.12240 0.36032 -0.88589 126 114 102
0.12282 0.36074 -0.88577 127 116 107
0.12281 0.36031 -0.88575 126 114 105
0.12279 0.35989 -0.88572 124 115 102
0.12201 0.35989 -0.88603 120 107 99
0.12217 0.35997 -0.88557 123 111 98
0.12256 0.35954 -0.88540 124 116 100
0.12163 0.35931 -0.88485 115 109 94
0.12202 0.35888 -0.88468 117 110 98
0.12207 0.35929 -0.88476 121 114 100
0.12248 0.35971 -0.88464 124 117 104
0.12247 0.35928 -0.88461 123 116 104
0.11999 0.35665 -0.87691 119 108 95
0.12039 0.35705 -0.87681 124 111 97
0.12038 0.35665 -0.87678 124 111 97
0.11915 0.35629 -0.87707 89 79 67
0.11878 0.35669 -0.87723 90 78 64
0.11877 0.35629 -0.87721 93 80 63
0.11876 0.35589 -0.87718 95 82 65
0.11914 0.35589 -0.87705 91 78 64
0.12018 0.35617 -0.87714 111 102 91
0.12017 0.35577 -0.87711 100 90 81
0.12043 0.35622 -0.87683 121 110 97
0.12082 0.35662 -0.87673 124 112 97
0.12081 0.35622 -0.87670 124 113 96
0.11990 0.35573 -0.87739 90 79 68
0.11950 0.35533 -0.87750 92 80 64
0.11989 0.35532 -0.87736 88 78 65
0.12066 0.35572 -0.87712 114 103 93
0.12103 0.35531 -0.87696 115 102 95
0.12036 0.35528 -0.87735 90 80 72
0.11997 0.35488 -0.87746 88 80 66
0.12035 0.35488 -0.87732 85 77 67
0.12075 0.35527 -0.87721 103 91 85
0.12112 0.35487 -0.87705 106 93 83
0.12105 0.35474 -0.87758 90 80 72
0.12066 0.35434 -0.87769 88 80 68
0.12142 0.35433 -0.87742 94 82 72
0.06922 0.34463 -0.92105 105 103 79
0.06875 0.34416 -0.92118 104 97 76
0.06965 0.34415 -0.92086 106 103 85
0.08063 0.35747 -0.86903 100 96 76
0.08029 0.35713 -0.86912 98 93 80
0.08064 0.35781 -0.86905 106 102 83
0.08062 0.35712 -0.86901 99 94 76
0.08097 0.35781 -0.86893 107 102 86
0.08094 0.35712 -0.86889 99 94 76
0.12736 0.34697 -0.87482 118 103 94
0.12776 0.34737 -0.87471 118 105 90
0.12774 0.34697 -0.87469 118 105 95
