ply
format ascii 1.0
element face 0
property list uchar int vertex_indices
element vertex 1301
property float x
property float y
property float z
property uchar diffuse_red
property uchar diffuse_green
property uchar diffuse_blue
end_header
0.11691 0.47112 -1.07948 196 191 180
0.11694 0.46990 -1.07947 196 196 187
0.07321 0.44473 -1.00021 148 136 118
0.07357 0.44474 -1.00012 144 134 120
0.07358 0.44437 -1.00012 146 133 123
0.07498 0.44529 -1.00169 159 143 129
0.07536 0.44493 -1.00160 168 150 134
0.08266 0.46599 -1.07676 104 103 95
0.08324 0.46543 -1.07661 100 97 96
0.10004 0.47041 -1.08727 151 143 136
0.10041 0.46980 -1.08485 111 95 100
0.10101 0.46982 -1.08471 110 86 94
0.10161 0.46983 -1.08457 131 98 110
0.10216 0.46976 -1.08408 176 151 158
0.10285 0.46998 -1.08469 190 181 176
0.10355 0.47022 -1.08533 191 189 183
0.10415 0.47024 -1.08519 191 191 189
0.10417 0.46962 -1.08518 195 189 190
0.10915 0.46959 -1.08102 204 199 198
0.10979 0.46969 -1.08118 202 198 196
0.11052 0.46996 -1.08193 212 211 205
0.11119 0.47009 -1.08219 221 221 213
0.11495 0.46953 -1.07876 199 198 188
0.11556 0.46894 -1.07861 190 190 178
0.07463 0.44494 -1.00190 146 129 117
0.07427 0.44456 -1.00198 141 127 116
0.07499 0.44496 -1.00185 161 145 130
0.07537 0.44460 -1.00176 166 150 132
0.08267 0.46537 -1.07661 106 101 94
0.08325 0.46481 -1.07647 101 98 98
0.09945 0.46976 -1.08736 169 165 163
0.09886 0.46912 -1.08750 171 163 156
0.10004 0.46972 -1.08702 150 142 140
0.10029 0.46885 -1.08363 110 94 100
0.10089 0.46887 -1.08349 109 84 95
0.10148 0.46889 -1.08335 131 98 113
0.10201 0.46875 -1.08263 175 150 157
0.10260 0.46875 -1.08244 191 179 177
0.11060 0.46945 -1.08227 215 211 207
0.11124 0.46955 -1.08243 224 220 213
0.11186 0.46895 -1.08228 227 227 215
0.11166 0.46925 -1.08116 229 228 216
0.11227 0.46866 -1.08101 228 228 215
0.11510 0.46914 -1.07953 199 197 186
0.11572 0.46855 -1.07938 190 189 180
0.07319 0.44442 -1.00185 150 134 120
0.07356 0.44406 -1.00176 147 133 122
0.07463 0.44469 -1.00238 146 133 118
0.07427 0.44431 -1.00246 140 128 115
0.07464 0.44432 -1.00237 145 132 118
0.07501 0.44433 -1.00229 161 142 130
0.07499 0.44475 -1.00249 160 145 130
0.07537 0.44439 -1.00240 168 151 132
0.08269 0.46482 -1.07671 108 101 94
0.08327 0.46426 -1.07657 102 95 94
0.09947 0.46915 -1.08740 167 162 150
0.09888 0.46851 -1.08754 168 162 160
0.10002 0.46901 -1.08667 149 140 132
0.10020 0.46798 -1.08267 109 91 92
0.10080 0.46800 -1.08253 109 81 88
0.10139 0.46802 -1.08239 133 102 109
0.10185 0.46773 -1.08110 173 154 154
0.10255 0.46798 -1.08185 189 179 177
0.11063 0.46886 -1.08236 215 210 204
0.11128 0.46897 -1.08257 223 220 211
0.11524 0.46871 -1.08017 198 196 186
0.11585 0.46812 -1.08002 187 187 185
0.08270 0.46417 -1.07644 109 102 92
0.08328 0.46361 -1.07630 102 95 91
0.09953 0.46863 -1.08776 166 162 157
0.09894 0.46799 -1.08790 167 163 161
0.10011 0.46858 -1.08736 148 142 134
0.10018 0.46728 -1.08232 107 94 88
0.10078 0.46730 -1.08218 109 82 84
0.10137 0.46732 -1.08203 135 102 107
0.10184 0.46706 -1.08087 175 153 156
0.10249 0.46721 -1.08123 189 180 176
0.11063 0.46821 -1.08224 212 211 199
0.11126 0.46829 -1.08232 221 220 207
0.11188 0.46770 -1.08217 224 225 210
0.11165 0.46796 -1.08090 227 227 213
0.11227 0.46737 -1.08075 224 225 211
0.11529 0.46816 -1.08039 195 195 191
0.11591 0.46757 -1.08024 187 187 183
0.07217 0.44321 -1.00036 155 143 128
0.07254 0.44285 -1.00027 162 148 129
0.08213 0.46342 -1.07597 125 117 106
0.08158 0.46283 -1.07610 122 113 106
0.08691 0.46826 -1.09320 147 136 132
0.08754 0.46765 -1.09305 157 149 135
0.09959 0.46812 -1.08817 164 162 159
0.09900 0.46748 -1.08831 168 162 154
0.10019 0.46812 -1.08798 144 138 138
0.10020 0.46667 -1.08229 105 91 93
0.10079 0.46669 -1.08215 111 82 88
0.10138 0.46671 -1.08201 135 103 103
0.10188 0.46651 -1.08105 177 154 147
0.10246 0.46649 -1.08078 190 178 168
0.10308 0.46659 -1.08093 192 184 175
0.10371 0.46667 -1.08105 194 186 182
0.10428 0.46729 -1.08091 196 192 183
0.10430 0.46669 -1.08090 196 189 190
0.10431 0.46608 -1.08090 195 188 188
0.10946 0.46760 -1.08263 199 198 185
0.11006 0.46761 -1.08247 199 196 182
0.11072 0.46775 -1.08276 212 210 195
0.11128 0.46769 -1.08236 220 219 205
0.11190 0.46710 -1.08221 224 225 213
0.11535 0.46761 -1.08060 195 194 187
0.11596 0.46702 -1.08045 188 189 178
0.07218 0.44285 -1.00042 153 142 127
0.07255 0.44250 -1.00033 160 148 129
0.08687 0.46731 -1.09194 147 141 131
0.09962 0.46754 -1.08834 167 160 152
0.09903 0.46690 -1.08848 170 161 151
0.10011 0.46727 -1.08708 145 134 123
0.10023 0.46610 -1.08240 104 90 84
0.10082 0.46611 -1.08226 108 86 86
0.10141 0.46613 -1.08212 135 105 103
0.10181 0.46571 -1.08033 177 156 149
0.10247 0.46588 -1.08075 189 177 166
0.10308 0.46529 -1.08060 191 185 174
0.10311 0.46600 -1.08100 192 185 173
0.10371 0.46541 -1.08085 192 187 175
0.10371 0.46605 -1.08098 194 188 180
0.10935 0.46677 -1.08181 195 198 179
0.10997 0.46682 -1.08178 196 197 180
0.11060 0.46689 -1.08185 212 210 200
0.11120 0.46691 -1.08170 219 218 209
0.11181 0.46631 -1.08155 224 225 210
0.11296 0.46691 -1.08111 221 221 209
0.11238 0.46628 -1.08125 223 225 209
0.11356 0.46692 -1.08093 212 213 202
0.11414 0.46692 -1.08073 205 206 196
0.11487 0.46713 -1.08130 202 204 192
0.11548 0.46717 -1.08124 192 194 183
0.11610 0.46658 -1.08109 188 189 179
0.07219 0.44249 -1.00044 151 142 127
0.07256 0.44213 -1.00035 160 148 132
0.08276 0.46253 -1.07681 109 100 100
0.08334 0.46197 -1.07667 104 95 93
0.08485 0.46524 -1.08687 134 128 121
0.08546 0.46465 -1.08673 134 132 118
0.08681 0.46629 -1.09038 146 141 129
0.08742 0.46631 -1.09023 159 150 138
0.08803 0.46632 -1.09009 152 148 140
0.09957 0.46674 -1.08765 166 157 146
0.09898 0.46611 -1.08779 166 160 153
0.10008 0.46653 -1.08660 144 134 127
0.10026 0.46554 -1.08257 104 93 92
0.10086 0.46555 -1.08243 109 87 91
0.10145 0.46557 -1.08229 134 102 106
0.10197 0.46543 -1.08154 178 153 154
0.10255 0.46542 -1.08129 189 178 170
0.10316 0.46483 -1.08114 189 184 172
0.10926 0.46595 -1.08103 194 195 182
0.10989 0.46604 -1.08115 194 195 183
0.11059 0.46624 -1.08170 209 209 199
0.11121 0.46629 -1.08167 219 218 206
0.11182 0.46569 -1.08152 223 224 211
0.11293 0.46622 -1.08078 219 221 206
0.11235 0.46559 -1.08092 223 224 210
0.11351 0.46622 -1.08058 211 213 198
0.11409 0.46621 -1.08032 205 206 193
0.11478 0.46636 -1.08069 203 204 189
0.11545 0.46649 -1.08098 192 194 180
0.11607 0.46590 -1.08083 186 186 183
0.08279 0.46214 -1.07754 107 102 93
0.08338 0.46157 -1.07740 99 97 97
0.08680 0.46552 -1.08976 149 136 126
0.08742 0.46492 -1.08961 161 148 138
0.08741 0.46553 -1.08962 160 147 137
0.08803 0.46493 -1.08947 152 143 134
0.09955 0.46603 -1.08728 164 157 150
0.09896 0.46539 -1.08742 165 159 150
0.10009 0.46588 -1.08650 143 134 128
0.10030 0.46498 -1.08277 105 90 89
0.10090 0.46500 -1.08263 112 83 93
0.10149 0.46502 -1.08249 136 102 113
0.10196 0.46476 -1.08127 177 156 157
0.10256 0.46479 -1.08118 187 178 169
0.10991 0.46543 -1.08116 193 195 181
0.10933 0.46481 -1.08130 192 191 186
0.11060 0.46560 -1.08160 209 211 198
0.11121 0.46565 -1.08158 217 218 206
0.11183 0.46506 -1.08143 221 223 209
0.11291 0.46556 -1.08060 219 221 206
0.11349 0.46554 -1.08031 210 213 198
0.11405 0.46550 -1.07996 205 206 195
0.11466 0.46555 -1.07995 203 204 195
0.11540 0.46578 -1.08060 192 192 186
0.11602 0.46519 -1.08046 186 184 178
0.08681 0.46485 -1.08956 148 138 127
0.08743 0.46425 -1.08941 158 148 139
0.09948 0.46519 -1.08641 164 161 148
0.09889 0.46456 -1.08655 166 163 147
0.09998 0.46498 -1.08537 140 133 119
0.10030 0.46434 -1.08262 105 87 84
0.10090 0.46435 -1.08247 114 81 92
0.10149 0.46437 -1.08233 138 106 113
0.10199 0.46418 -1.08139 176 155 156
0.10258 0.46419 -1.08121 187 175 171
0.10318 0.46360 -1.08106 188 183 180
0.10317 0.46421 -1.08109 189 182 178
0.10375 0.46484 -1.08096 190 186 175
0.10376 0.46423 -1.08095 191 184 180
0.10378 0.46363 -1.08094 190 184 181
0.10995 0.46487 -1.08132 192 192 184
0.11063 0.46503 -1.08172 208 209 198
0.11125 0.46507 -1.08170 216 218 205
0.11186 0.46448 -1.08155 222 221 209
0.11236 0.46497 -1.08089 221 222 208
0.11238 0.46436 -1.08088 220 221 205
0.11289 0.46489 -1.08036 217 218 205
0.11344 0.46484 -1.07994 208 210 196
0.11397 0.46476 -1.07944 204 204 190
0.11452 0.46470 -1.07901 202 200 189
0.11526 0.46493 -1.07969 189 188 180
0.11646 0.46499 -1.07947 195 194 187
0.11704 0.46561 -1.07934 195 195 191
0.11706 0.46501 -1.07933 196 197 190
0.11707 0.46440 -1.07933 195 196 185
0.12284 0.43209 -0.94274 159 152 147
0.12352 0.43232 -0.94343 144 135 135
0.12377 0.43208 -0.94337 143 134 137
0.08627 0.46445 -1.09066 135 127 116
0.09940 0.46436 -1.08554 164 160 144
0.09882 0.46372 -1.08568 166 160 145
0.09995 0.46425 -1.08491 139 131 115
0.10034 0.46377 -1.08278 107 86 84
0.10091 0.46375 -1.08247 112 84 91
0.10151 0.46376 -1.08233 135 104 109
0.10194 0.46344 -1.08083 177 157 157
0.10254 0.46347 -1.08074 187 179 177
0.11072 0.46453 -1.08219 207 207 199
0.11131 0.46454 -1.08200 216 216 207
0.11193 0.46394 -1.08185 220 222 207
0.11271 0.46398 -1.07917 216 218 202
0.11213 0.46335 -1.07930 219 221 206
0.11321 0.46386 -1.07851 208 209 196
0.11375 0.46380 -1.07807 202 202 190
0.11432 0.46379 -1.07780 199 199 184
0.11506 0.46402 -1.07850 187 189 174
0.11567 0.46343 -1.07836 188 187 179
0.11578 0.46421 -1.07903 185 186 176
0.11639 0.46362 -1.07889 194 193 184
0.07294 0.44109 -1.00044 159 143 131
0.07329 0.44121 -1.00082 150 136 125
0.07366 0.44085 -1.00073 146 133 120
0.07402 0.44109 -1.00007 140 131 116
0.08626 0.46367 -1.09001 133 129 111
0.09958 0.46273 -1.08126 142 132 119
0.10037 0.46321 -1.08297 106 87 85
0.10099 0.46328 -1.08302 112 83 90
0.10156 0.46325 -1.08269 139 105 109
0.10186 0.46262 -1.07998 179 158 156
0.10247 0.46269 -1.08003 185 176 172
0.10303 0.46264 -1.07963 188 182 181
0.10361 0.46266 -1.07949 189 186 179
0.11077 0.46397 -1.08237 205 205 199
0.11133 0.46393 -1.08201 215 215 205
0.11195 0.46334 -1.08186 220 221 206
0.11274 0.46340 -1.07926 216 217 202
0.11217 0.46277 -1.07939 219 219 205
0.11324 0.46327 -1.07855 208 208 195
0.11377 0.46319 -1.07804 203 203 193
0.11431 0.46315 -1.07766 198 198 186
0.11498 0.46327 -1.07794 189 188 177
0.11559 0.46269 -1.07780 188 189 177
0.11475 0.43699 -0.96819 151 159 157
0.11444 0.43729 -0.96827 126 126 125
0.11445 0.43698 -0.96826 124 135 139
0.11476 0.43669 -0.96819 148 155 150
0.12183 0.43120 -0.94144 170 163 160
0.07225 0.44054 -0.99994 151 136 121
0.07262 0.44019 -0.99985 162 145 133
0.07296 0.44066 -1.00017 159 143 127
0.07331 0.44077 -1.00052 152 136 124
0.07368 0.44041 -1.00043 146 134 119
0.07404 0.44068 -0.99989 144 132 116
0.08623 0.46283 -1.08909 133 131 113
0.08625 0.46222 -1.08908 133 130 116
0.08682 0.46278 -1.08865 145 143 122
0.08744 0.46219 -1.08850 156 151 133
0.09963 0.46220 -1.08152 141 127 123
0.10044 0.46272 -1.08343 103 83 89
0.10104 0.46274 -1.08329 113 82 91
0.10154 0.46256 -1.08236 140 108 114
0.10177 0.46179 -1.07904 177 158 155
0.10235 0.46180 -1.07887 184 174 166
0.10295 0.46122 -1.07872 183 179 167
0.11088 0.46350 -1.08296 205 204 190
0.11145 0.46348 -1.08265 213 213 199
0.11207 0.46288 -1.08250 219 220 206
0.11278 0.46281 -1.07936 216 216 201
0.11220 0.46219 -1.07949 219 219 204
0.11327 0.46268 -1.07862 207 209 195
0.11380 0.46262 -1.07815 203 205 193
0.11435 0.46257 -1.07776 197 199 187
0.11493 0.46258 -1.07758 187 189 178
0.11554 0.46199 -1.07743 188 188 175
0.07227 0.44015 -0.99981 150 137 126
0.07264 0.43979 -0.99972 161 146 131
0.07333 0.44031 -1.00011 150 135 124
0.07370 0.43995 -1.00002 145 133 118
0.09954 0.46136 -1.08057 138 125 117
0.10051 0.46222 -1.08390 102 84 85
0.10110 0.46222 -1.08368 111 81 94
0.10163 0.46210 -1.08298 140 103 117
0.10180 0.46123 -1.07917 178 156 159
0.10236 0.46120 -1.07885 183 176 164
0.10296 0.46062 -1.07871 183 178 167
0.11101 0.46306 -1.08365 206 204 192
0.11154 0.46297 -1.08306 214 212 200
0.11216 0.46237 -1.08291 218 218 204
0.11285 0.46229 -1.07968 215 215 200
0.11227 0.46166 -1.07981 217 219 204
0.11332 0.46213 -1.07883 207 208 192
0.11385 0.46206 -1.07831 203 204 189
0.11439 0.46200 -1.07789 198 198 185
0.11490 0.46191 -1.07731 189 188 177
0.11551 0.46133 -1.07717 187 189 175
0.12150 0.43066 -0.94130 172 165 153
0.12127 0.43042 -0.94135 172 165 152
0.12150 0.43042 -0.94130 172 164 154
0.07443 0.43968 -0.99857 136 123 104
0.08408 0.45905 -1.07882 105 104 88
0.09947 0.46057 -1.07974 136 124 120
0.10053 0.46162 -1.08393 101 83 89
0.10113 0.46164 -1.08378 112 81 91
0.10164 0.46148 -1.08293 139 104 113
0.10162 0.46023 -1.07750 178 156 158
0.11111 0.46258 -1.08422 207 202 191
0.11165 0.46249 -1.08362 215 211 197
0.11227 0.46189 -1.08347 217 220 203
0.11289 0.46173 -1.07985 213 215 200
0.11337 0.46158 -1.07904 205 206 191
0.11391 0.46151 -1.07855 200 201 184
0.11446 0.46148 -1.07819 195 196 180
0.11496 0.46137 -1.07757 186 189 175
0.07230 0.43934 -0.99945 148 136 120
0.07267 0.43898 -0.99936 156 142 127
0.07265 0.43936 -0.99944 158 145 129
0.07301 0.43935 -0.99924 154 141 126
0.08410 0.45848 -1.07890 107 102 91
0.08354 0.45788 -1.07903 101 96 95
0.08694 0.46126 -1.09003 148 139 125
0.08756 0.46066 -1.08988 155 150 140
0.09942 0.45981 -1.07908 132 122 115
0.10052 0.46096 -1.08371 100 84 78
0.10112 0.46098 -1.08357 111 82 81
0.10163 0.46081 -1.08264 139 110 110
0.10997 0.46202 -1.08487 185 182 174
0.11053 0.46196 -1.08442 191 186 179
0.11106 0.46186 -1.08379 206 203 191
0.11158 0.46175 -1.08311 213 213 196
0.11220 0.46115 -1.08296 217 216 205
0.11264 0.46158 -1.08196 217 218 203
0.11266 0.46096 -1.08195 216 214 203
0.11304 0.46131 -1.08064 214 212 198
0.11352 0.46116 -1.07981 203 202 188
0.11403 0.46105 -1.07915 198 198 184
0.11454 0.46096 -1.07857 192 193 179
0.11515 0.46038 -1.07842 183 183 173
0.11506 0.46087 -1.07798 185 187 172
0.11572 0.46099 -1.07824 187 189 174
0.11630 0.46161 -1.07811 194 195 179
0.11631 0.46101 -1.07810 195 193 179
0.07230 0.43901 -0.99964 145 134 117
0.07267 0.43866 -0.99955 157 142 128
0.07302 0.43901 -0.99936 154 138 123
0.08415 0.45808 -1.07972 106 103 97
0.08359 0.45748 -1.07985 102 98 96
0.08695 0.46063 -1.08998 147 140 131
0.08813 0.46053 -1.08911 151 146 134
0.08811 0.46115 -1.08911 151 147 131
0.08872 0.46117 -1.08897 147 143 129
0.08867 0.46027 -1.08773 146 145 131
0.08925 0.46090 -1.08760 149 142 132
0.08927 0.46029 -1.08759 147 141 127
0.09841 0.45950 -1.08073 165 157 149
0.09780 0.46008 -1.08087 165 156 152
0.09782 0.45948 -1.08087 162 159 153
0.09784 0.45888 -1.08086 160 161 153
0.09842 0.45890 -1.08072 162 157 151
0.09902 0.45957 -1.08081 162 152 139
0.09958 0.45953 -1.08042 136 122 111
0.10047 0.46021 -1.08309 103 83 76
0.10102 0.46012 -1.08252 112 82 89
0.10151 0.45993 -1.08149 141 109 115
0.11063 0.46146 -1.08492 186 188 175
0.11115 0.46135 -1.08420 203 203 190
0.11163 0.46118 -1.08328 213 211 200
0.11224 0.46058 -1.08313 216 217 200
0.11307 0.46071 -1.08068 213 210 198
0.11249 0.46008 -1.08081 215 215 200
0.11354 0.46056 -1.07982 203 200 188
0.11405 0.46046 -1.07919 194 193 182
0.11459 0.46039 -1.07871 188 187 177
0.11519 0.45980 -1.07856 181 182 163
0.11570 0.46034 -1.07806 187 187 175
0.11631 0.46037 -1.07797 193 194 181
0.11688 0.46099 -1.07783 198 194 181
0.11690 0.46039 -1.07783 193 195 183
0.11691 0.45978 -1.07782 193 194 177
0.08416 0.45745 -1.07954 108 101 103
0.08360 0.45685 -1.07967 104 97 99
0.08699 0.46014 -1.09053 147 140 125
0.08759 0.46013 -1.09025 158 150 138
0.08822 0.45953 -1.09010 154 146 145
0.08866 0.45958 -1.08738 149 144 136
0.08928 0.45898 -1.08723 145 143 137
0.09894 0.45877 -1.07994 163 152 142
0.09948 0.45868 -1.07933 130 117 106
0.10036 0.45933 -1.08193 102 83 78
0.10094 0.45930 -1.08161 111 84 85
0.10643 0.45975 -1.08155 158 156 154
0.11069 0.46092 -1.08521 188 186 176
0.11010 0.46028 -1.08535 186 180 169
0.11115 0.46070 -1.08409 201 200 191
0.11162 0.46053 -1.08314 211 210 195
0.11224 0.45993 -1.08300 214 215 197
0.11305 0.46006 -1.08049 212 211 198
0.11247 0.45943 -1.08062 214 215 199
0.11352 0.45990 -1.07961 203 201 192
0.11403 0.45979 -1.07895 194 194 182
0.11456 0.45973 -1.07848 186 187 170
0.11517 0.45915 -1.07833 181 182 164
0.11566 0.45966 -1.07772 187 186 167
0.11627 0.45907 -1.07757 192 193 177
0.11628 0.45971 -1.07775 194 193 175
0.11689 0.45913 -1.07760 193 193 180
0.08416 0.45682 -1.07932 108 101 104
0.08694 0.45919 -1.08906 149 141 125
0.09825 0.45787 -1.07885 163 160 147
0.09767 0.45785 -1.07899 164 159 149
0.09768 0.45726 -1.07898 162 157 144
0.09827 0.45728 -1.07884 164 158 144
0.09887 0.45797 -1.07906 158 153 138
0.09940 0.45787 -1.07844 129 116 105
0.10021 0.45837 -1.08039 103 81 79
0.10080 0.45839 -1.08025 112 80 84
0.10657 0.45935 -1.08247 154 153 148
0.11069 0.46026 -1.08507 188 184 175
0.11108 0.45996 -1.08355 200 200 189
0.11155 0.45978 -1.08257 209 211 195
0.11217 0.45919 -1.08242 213 215 200
0.11297 0.45931 -1.07989 208 210 198
0.11346 0.45918 -1.07911 199 200 189
0.11397 0.45909 -1.07851 194 193 180
0.11451 0.45904 -1.07807 187 186 170
0.11512 0.45845 -1.07793 181 180 164
0.11562 0.45899 -1.07743 187 189 170
0.08418 0.45620 -1.07917 107 101 95
0.08692 0.45840 -1.08826 149 138 126
0.08753 0.45846 -1.08830 159 146 139
0.08815 0.45786 -1.08815 153 145 139
0.09878 0.45713 -1.07801 160 152 138
0.09821 0.45652 -1.07814 163 157 149
0.09943 0.45730 -1.07851 128 115 105
0.10010 0.45750 -1.07917 102 81 81
0.10068 0.45751 -1.07903 111 82 85
0.10714 0.45966 -1.08649 153 153 150
0.11091 0.45907 -1.08236 198 197 187
0.11147 0.45903 -1.08195 208 208 196
0.11208 0.45843 -1.08181 213 214 197
0.11244 0.45875 -1.08031 212 213 201
0.11293 0.45862 -1.07952 207 207 195
0.11340 0.45847 -1.07867 197 197 185
0.11383 0.45827 -1.07759 192 193 180
0.11438 0.45824 -1.07725 185 186 171
0.11499 0.45766 -1.07710 179 179 163
0.11550 0.45821 -1.07668 189 185 167
0.11618 0.45833 -1.07700 193 190 174
0.11677 0.45835 -1.07686 192 193 178
0.11678 0.45775 -1.07685 192 193 179
0.08419 0.45561 -1.07914 107 102 94
0.08696 0.45788 -1.08868 148 138 128
0.08757 0.45792 -1.08865 156 147 136
0.09875 0.45645 -1.07762 159 150 142
0.09819 0.45584 -1.07775 163 156 145
0.09946 0.45675 -1.07870 128 113 104
0.10007 0.45681 -1.07878 97 75 69
0.10065 0.45683 -1.07865 115 82 84
0.10706 0.45889 -1.08580 154 147 148
0.11070 0.45813 -1.08091 199 199 186
0.11125 0.45809 -1.08052 208 210 194
0.11187 0.45750 -1.08037 212 213 195
0.11461 0.45791 -1.07842 183 184 169
0.11562 0.45773 -1.07719 186 185 169
0.11618 0.45772 -1.07694 191 190 177
0.11679 0.45713 -1.07680 191 191 179
0.08426 0.45533 -1.08061 108 103 99
0.08696 0.45718 -1.08827 148 141 128
0.08756 0.45723 -1.08827 156 151 138
0.09872 0.45576 -1.07714 158 153 139
0.09816 0.45515 -1.07727 162 157 144
0.09964 0.45647 -1.08016 126 116 105
0.10000 0.45604 -1.07797 100 79 74
0.10068 0.45626 -1.07876 114 83 86
0.10019 0.45420 -1.06923 144 118 121
0.10704 0.45819 -1.08547 154 148 149
0.11050 0.45721 -1.07952 196 196 181
0.11112 0.45727 -1.07959 207 206 191
0.11173 0.45668 -1.07944 212 211 197
0.11447 0.45710 -1.07754 177 178 162
0.11497 0.45702 -1.07694 172 172 159
0.11552 0.45698 -1.07656 182 182 170
0.11614 0.45704 -1.07659 190 190 178
0.11674 0.45645 -1.07645 190 192 181
0.08433 0.45509 -1.08224 104 104 99
0.08504 0.45576 -1.08517 133 130 120
0.08564 0.45517 -1.08503 138 133 117
0.08628 0.45609 -1.08628 135 127 111
0.08695 0.45645 -1.08772 148 140 127
0.08755 0.45650 -1.08773 156 152 140
0.09873 0.45515 -1.07705 157 152 136
0.09817 0.45454 -1.07718 162 157 144
0.09959 0.45574 -1.07956 120 114 102
0.10006 0.45554 -1.07839 97 81 72
0.10076 0.45577 -1.07924 113 86 80
0.10029 0.45379 -1.06999 141 115 111
0.10050 0.45315 -1.06686 175 159 151
0.10542 0.45683 -1.08254 132 129 127
0.10601 0.45685 -1.08240 137 133 132
0.11033 0.45634 -1.07832 194 195 180
0.11102 0.45651 -1.07886 207 206 192
0.11430 0.45627 -1.07651 168 167 156
0.11486 0.45626 -1.07622 165 165 154
0.11542 0.45624 -1.07592 181 183 171
0.11602 0.45627 -1.07585 189 192 179
0.11662 0.45569 -1.07570 190 193 175
0.11514 0.43608 -0.97984 191 189 169
0.11482 0.43573 -0.97991 189 190 176
0.11550 0.43611 -0.97984 178 178 159
0.08437 0.45462 -1.08283 106 105 102
0.08502 0.45500 -1.08442 131 128 119
0.08563 0.45441 -1.08427 141 134 121
0.08631 0.45556 -1.08662 137 129 117
0.08694 0.45571 -1.08714 149 141 129
0.08755 0.45512 -1.08699 158 147 134
0.08814 0.45577 -1.08697 152 147 131
0.08875 0.45518 -1.08682 150 143 131
0.09972 0.45538 -1.08064 121 110 103
0.10028 0.45533 -1.08018 99 78 79
0.10091 0.45543 -1.08046 112 83 87
0.10069 0.45290 -1.06831 174 160 151
0.11032 0.45571 -1.07818 193 192 177
0.11098 0.45582 -1.07847 205 203 188
0.11159 0.45523 -1.07832 208 209 194
0.11529 0.45547 -1.07515 183 182 166
0.11589 0.45489 -1.07501 190 190 174
0.11591 0.45552 -1.07517 189 191 171
0.11651 0.45494 -1.07502 191 191 173
0.11484 0.43552 -0.97888 187 188 174
0.11452 0.43517 -0.97896 188 191 176
0.11524 0.43558 -0.97904 174 176 165
0.11558 0.43525 -0.97895 127 130 129
0.08441 0.45414 -1.08337 108 105 99
0.08506 0.45449 -1.08484 132 128 117
0.08566 0.45390 -1.08469 142 135 121
0.08630 0.45484 -1.08608 139 131 122
0.08693 0.45501 -1.08669 147 140 127
0.08755 0.45442 -1.08654 153 150 134
0.09872 0.45389 -1.07668 156 151 142
0.09816 0.45328 -1.07682 157 157 149
0.09975 0.45480 -1.08074 121 110 105
0.10046 0.45505 -1.08170 99 77 76
0.10103 0.45504 -1.08141 113 82 83
0.10090 0.45371 -1.07497 141 119 111
0.10078 0.45247 -1.06896 174 163 148
0.11045 0.45526 -1.07891 192 194 174
0.11100 0.45521 -1.07846 204 205 186
0.11160 0.45463 -1.07832 208 208 194
0.11523 0.45478 -1.07470 185 185 170
0.11583 0.45420 -1.07456 189 188 175
0.08441 0.45345 -1.08296 111 106 103
0.08504 0.45373 -1.08408 136 131 122
0.08565 0.45314 -1.08394 144 140 124
0.08626 0.45393 -1.08461 140 134 119
0.08689 0.45413 -1.08534 148 143 127
0.08750 0.45354 -1.08519 152 151 130
0.09873 0.45327 -1.07655 151 151 140
0.09816 0.45266 -1.07668 160 159 148
0.09988 0.45441 -1.08177 117 109 100
0.10063 0.45475 -1.08313 97 76 73
0.10115 0.45461 -1.08225 112 81 81
0.10094 0.45216 -1.07018 172 161 147
0.10152 0.45160 -1.07004 174 170 157
0.10152 0.45222 -1.07023 173 171 154
0.10210 0.45166 -1.07009 175 173 159
0.11059 0.45482 -1.07965 194 191 169
0.11112 0.45475 -1.07912 204 203 184
0.11173 0.45416 -1.07897 205 208 193
0.11254 0.45436 -1.07664 202 202 186
0.11298 0.45419 -1.07560 192 193 175
0.11340 0.45401 -1.07455 184 187 169
0.11389 0.45392 -1.07392 176 178 164
0.11449 0.45334 -1.07377 175 176 165
0.11442 0.45388 -1.07349 175 175 166
0.11500 0.45390 -1.07338 186 184 175
0.08440 0.45272 -1.08229 121 111 108
0.08500 0.45214 -1.08215 147 142 127
0.09875 0.45269 -1.07659 153 152 139
0.09998 0.45397 -1.08254 116 106 100
0.10083 0.45447 -1.08475 97 74 81
0.10131 0.45427 -1.08351 112 80 88
0.10113 0.45189 -1.07162 176 162 155
0.11061 0.45422 -1.07969 191 191 167
0.11112 0.45413 -1.07901 202 203 182
0.11173 0.45354 -1.07886 203 206 190
0.11212 0.45393 -1.07764 204 206 192
0.11254 0.45374 -1.07651 198 201 186
0.11295 0.45354 -1.07535 191 194 179
0.11340 0.45340 -1.07447 185 187 172
0.11389 0.45330 -1.07379 177 178 166
0.11498 0.45326 -1.07316 185 185 171
0.11558 0.45269 -1.07302 189 190 178
0.11561 0.45334 -1.07332 190 189 178
0.11618 0.45395 -1.07319 190 189 174
0.11619 0.45336 -1.07318 190 190 182
0.11621 0.45277 -1.07317 190 189 183
0.08202 0.45154 -1.08022 124 119 113
0.08143 0.45211 -1.08036 115 112 106
0.08144 0.45152 -1.08035 120 115 105
0.08146 0.45093 -1.08035 123 121 110
0.08431 0.45152 -1.07926 144 135 124
0.09814 0.45199 -1.07624 159 159 147
0.09754 0.45256 -1.07638 162 159 148
0.09756 0.45197 -1.07637 159 159 148
0.09758 0.45138 -1.07637 155 155 147
0.09878 0.45214 -1.07676 153 150 136
0.10016 0.45368 -1.08409 115 103 94
0.10115 0.45443 -1.08751 95 73 74
0.10145 0.45389 -1.08464 111 82 86
0.10113 0.45128 -1.07148 173 160 150
0.10159 0.45113 -1.07053 176 171 156
0.10217 0.45057 -1.07039 177 175 170
0.11060 0.45358 -1.07953 189 189 168
0.11107 0.45344 -1.07862 200 202 183
0.11207 0.45325 -1.07725 200 202 187
0.11249 0.45306 -1.07611 196 197 183
0.11288 0.45284 -1.07486 190 192 176
0.11337 0.45274 -1.07416 186 185 169
0.11396 0.45217 -1.07402 175 175 164
0.11391 0.45271 -1.07379 178 176 164
0.11440 0.45262 -1.07316 175 175 165
0.11499 0.45266 -1.07309 184 186 172
0.11558 0.45208 -1.07295 185 188 173
0.08205 0.45104 -1.08067 130 125 114
0.08149 0.45043 -1.08080 127 123 118
0.08260 0.45089 -1.07971 145 137 127
0.08319 0.45032 -1.07957 147 139 130
0.08317 0.45084 -1.07922 148 140 131
0.08370 0.45062 -1.07787 146 140 129
0.08432 0.45089 -1.07900 148 141 129
0.08494 0.45117 -1.08024 149 141 127
0.09817 0.45143 -1.07639 158 160 148
0.09761 0.45082 -1.07653 157 154 144
0.09884 0.45162 -1.07712 149 149 139
0.10025 0.45321 -1.08479 113 101 98
0.10097 0.45344 -1.08571 96 74 75
0.10146 0.45327 -1.08460 111 84 89
0.10113 0.45068 -1.07137 172 160 154
0.10160 0.45055 -1.07049 176 172 163
0.10218 0.44999 -1.07035 175 170 165
0.11049 0.45280 -1.07867 188 187 177
0.11098 0.45270 -1.07793 196 199 184
0.11155 0.45270 -1.07770 199 202 186
0.11200 0.45254 -1.07673 197 199 183
0.11246 0.45241 -1.07586 193 195 184
0.11284 0.45217 -1.07450 190 192 180
0.11335 0.45211 -1.07398 183 185 171
0.11434 0.45195 -1.07276 175 177 166
0.11491 0.45196 -1.07258 183 185 172
0.08206 0.45040 -1.08042 138 130 123
0.08150 0.44979 -1.08055 146 136 126
0.08260 0.45021 -1.07921 149 140 131
0.08319 0.44964 -1.07907 149 143 133
0.08371 0.44998 -1.07759 147 140 129
0.08372 0.44940 -1.07758 152 143 129
0.08432 0.45026 -1.07881 155 147 131
0.08491 0.44969 -1.07867 161 153 137
0.08493 0.45042 -1.07942 159 152 134
0.08552 0.44985 -1.07928 160 153 140
0.09818 0.45083 -1.07633 156 156 143
0.09762 0.45022 -1.07646 156 157 143
0.09885 0.45102 -1.07708 151 145 134
0.10228 0.45301 -1.08617 145 125 124
0.10115 0.45012 -1.07145 170 161 156
0.10163 0.44999 -1.07058 174 168 161
0.10221 0.44943 -1.07044 174 172 164
0.10815 0.45214 -1.07929 179 180 171
0.10758 0.45152 -1.07942 181 181 175
0.10817 0.45154 -1.07928 182 184 176
0.10864 0.45202 -1.07846 173 175 163
0.10924 0.45144 -1.07831 167 168 163
0.10966 0.45185 -1.07717 175 175 169
0.11027 0.45190 -1.07717 187 187 179
0.11079 0.45183 -1.07661 193 192 177
0.11119 0.45162 -1.07536 180 182 163
0.11143 0.45122 -1.07316 168 170 153
0.11554 0.45143 -1.07266 185 187 179
0.11610 0.45204 -1.07253 187 189 177
0.11612 0.45145 -1.07252 187 189 180
0.11614 0.45086 -1.07252 185 187 174
0.08261 0.44957 -1.07890 156 147 137
0.08320 0.44900 -1.07876 151 142 131
0.08432 0.44958 -1.07833 158 147 132
0.09826 0.45037 -1.07697 156 156 140
0.09770 0.44976 -1.07710 159 156 138
0.09828 0.44978 -1.07696 160 158 140
0.09895 0.45059 -1.07788 148 143 131
0.10115 0.44951 -1.07125 172 160 153
0.10164 0.44940 -1.07050 172 169 161
0.10222 0.44884 -1.07036 172 172 159
0.10848 0.45119 -1.07729 174 176 168
0.10908 0.45061 -1.07714 166 166 155
0.10947 0.45099 -1.07583 174 175 172
0.11006 0.45102 -1.07576 187 187 181
0.11055 0.45092 -1.07507 187 189 173
0.11563 0.45092 -1.07304 183 185 174
0.12186 0.42610 -0.93855 143 135 123
0.12163 0.42586 -0.93861 137 128 118
0.12209 0.42588 -0.93850 147 141 127
0.08434 0.44898 -1.07820 156 149 134
0.08378 0.44837 -1.07833 154 149 137
0.08435 0.44839 -1.07820 161 155 141
0.08492 0.44841 -1.07806 163 158 143
0.08495 0.44922 -1.07926 159 152 136
0.08555 0.44865 -1.07912 162 161 144
0.09906 0.45016 -1.07873 151 146 136
0.10105 0.44874 -1.07030 170 162 153
0.10158 0.44870 -1.06986 169 170 161
0.10215 0.44815 -1.06972 172 172 157
0.10792 0.45058 -1.07744 180 182 168
0.10733 0.45056 -1.07758 179 181 167
0.10735 0.44996 -1.07758 177 180 162
0.10838 0.45044 -1.07652 172 174 161
0.10898 0.44986 -1.07638 167 165 150
0.10932 0.45019 -1.07479 176 177 165
0.10985 0.45013 -1.07429 187 187 175
0.11036 0.45007 -1.07373 185 187 172
0.09841 0.44941 -1.07814 159 155 139
0.09783 0.44939 -1.07827 159 153 137
0.09785 0.44880 -1.07827 156 152 143
0.09911 0.44964 -1.07913 148 144 131
0.10098 0.44804 -1.06959 167 162 149
0.10153 0.44802 -1.06931 168 170 157
0.10772 0.44970 -1.07599 178 180 160
0.10715 0.44909 -1.07612 176 178 162
0.10774 0.44910 -1.07599 177 177 160
0.10822 0.44961 -1.07533 173 173 155
0.10882 0.44904 -1.07518 165 165 145
0.10915 0.44936 -1.07355 178 174 159
0.10965 0.44928 -1.07293 189 185 170
0.11016 0.44922 -1.07241 185 186 171
0.09849 0.44892 -1.07868 158 154 143
0.09792 0.44831 -1.07881 156 155 142
0.09920 0.44917 -1.07978 146 139 126
0.09965 0.44894 -1.07835 106 93 87
0.10081 0.44898 -1.07807 114 82 92
0.10090 0.44820 -1.07369 146 126 127
0.10092 0.44734 -1.06895 167 159 148
0.10147 0.44734 -1.06869 167 165 150
0.10204 0.44678 -1.06855 172 170 152
0.10205 0.44740 -1.06879 173 169 155
0.10260 0.44799 -1.06867 173 171 157
0.10261 0.44741 -1.06866 174 170 159
0.10263 0.44684 -1.06866 173 169 154
0.10807 0.44880 -1.07417 172 172 154
0.10866 0.44823 -1.07403 164 163 149
0.10901 0.44857 -1.07252 175 176 153
0.10943 0.44841 -1.07142 185 187 165
0.10986 0.44826 -1.07044 183 184 162
0.11398 0.44913 -1.07362 141 145 143
0.11532 0.44935 -1.07432 136 141 136
0.11623 0.43275 -0.98166 137 142 132
0.09854 0.44838 -1.07900 157 154 142
0.09797 0.44777 -1.07913 158 155 140
0.09923 0.44859 -1.07989 147 140 128
0.09972 0.44844 -1.07887 107 94 85
0.10032 0.44786 -1.07872 95 74 69
0.10030 0.44846 -1.07873 96 70 72
0.10089 0.44848 -1.07859 113 81 86
0.10058 0.44707 -1.07079 149 129 131
0.10087 0.44667 -1.06839 165 159 147
0.10143 0.44669 -1.06829 168 165 147
0.10201 0.44614 -1.06816 170 169 154
0.10742 0.44809 -1.07374 178 177 165
0.10685 0.44807 -1.07388 177 177 165
0.10686 0.44748 -1.07387 176 176 163
0.10796 0.44806 -1.07336 171 170 157
0.10892 0.44787 -1.07189 174 173 157
0.10931 0.44766 -1.07057 184 184 165
0.10965 0.44742 -1.06907 183 185 162
0.11194 0.44751 -1.06867 98 98 99
0.11255 0.44758 -1.06881 95 96 99
0.11311 0.44760 -1.06867 101 102 103
0.11384 0.44778 -1.06941 106 109 108
0.11474 0.44815 -1.07110 129 132 129
0.11529 0.43222 -0.98099 181 182 169
0.11496 0.43187 -0.98106 183 185 172
0.11563 0.43223 -0.98093 174 177 162
0.11596 0.43224 -0.98083 132 138 130
0.09852 0.44774 -1.07872 155 149 138
0.09796 0.44712 -1.07885 154 151 139
0.09918 0.44789 -1.07931 145 138 128
0.09955 0.44754 -1.07717 106 95 86
0.10015 0.44696 -1.07703 94 74 70
0.10071 0.44757 -1.07689 114 84 83
0.10058 0.44648 -1.07069 148 128 122
0.10085 0.44604 -1.06806 166 160 143
0.10141 0.44606 -1.06793 167 168 149
0.10198 0.44551 -1.06779 165 168 153
0.10737 0.44741 -1.07325 178 173 162
0.10681 0.44681 -1.07338 172 173 162
0.10791 0.44739 -1.07289 169 166 154
0.10850 0.44682 -1.07275 163 163 147
0.10837 0.44727 -1.07202 164 163 150
0.10910 0.44682 -1.06914 184 186 169
0.10968 0.44626 -1.06900 192 193 170
0.10939 0.44653 -1.06735 189 192 172
0.10974 0.44630 -1.06592 181 183 161
0.11195 0.44694 -1.06866 92 95 91
0.11256 0.44700 -1.06878 87 89 92
0.11313 0.44702 -1.06867 95 95 103
0.09850 0.44708 -1.07836 153 152 138
0.09794 0.44646 -1.07849 153 154 144
0.09914 0.44719 -1.07878 143 141 128
0.09944 0.44674 -1.07600 104 93 88
0.10003 0.44617 -1.07586 96 74 70
0.10059 0.44677 -1.07573 110 85 81
0.10032 0.44548 -1.06831 146 129 120
0.10089 0.44550 -1.06822 162 161 142
0.10146 0.44495 -1.06808 163 166 151
0.10145 0.44554 -1.06819 164 167 149
0.10203 0.44498 -1.06805 164 166 150
0.10731 0.44673 -1.07272 173 172 164
0.10675 0.44613 -1.07285 174 174 157
0.10732 0.44614 -1.07271 174 171 160
0.10783 0.44669 -1.07229 168 167 154
0.10842 0.44613 -1.07215 162 158 154
0.10893 0.44603 -1.06800 184 186 165
0.10955 0.44550 -1.06466 192 189 165
0.10997 0.44537 -1.06373 182 180 159
0.11262 0.44647 -1.06902 109 109 106
0.12436 0.42632 -0.94691 162 158 143
0.12412 0.42606 -0.94697 163 159 146
0.09848 0.44642 -1.07801 153 154 139
0.09913 0.44654 -1.07848 144 141 127
0.09935 0.44597 -1.07499 104 91 81
0.09994 0.44540 -1.07485 95 73 69
0.10050 0.44600 -1.07471 112 85 87
0.10044 0.44506 -1.06915 148 132 127
0.10091 0.44495 -1.06832 165 161 151
0.10149 0.44440 -1.06818 165 162 157
0.10872 0.44520 -1.06657 182 185 161
0.10900 0.44490 -1.06469 191 192 171
0.10957 0.44436 -1.06455 191 194 173
0.10932 0.44467 -1.06316 191 193 171
0.10968 0.44448 -1.06191 185 187 164
0.11003 0.44429 -1.06065 169 168 146
0.11064 0.44438 -1.06090 153 152 132
0.11140 0.44461 -1.06198 141 143 128
0.11240 0.44509 -1.06439 136 137 129
0.09788 0.44574 -1.07772 152 150 145
0.09728 0.44631 -1.07787 153 155 144
0.09730 0.44572 -1.07786 152 151 145
0.09732 0.44513 -1.07786 152 150 141
0.09789 0.44514 -1.07772 153 148 136
0.09846 0.44575 -1.07759 152 148 137
0.09909 0.44585 -1.07791 143 138 125
0.09928 0.44525 -1.07418 101 89 75
0.09987 0.44468 -1.07404 98 72 74
0.10042 0.44528 -1.07391 111 83 86
0.10043 0.44446 -1.06897 152 131 131
0.10093 0.44438 -1.06832 167 155 156
0.10150 0.44383 -1.06818 166 160 153
0.10849 0.44436 -1.06501 184 183 163
0.10876 0.44406 -1.06313 193 192 173
0.10932 0.44352 -1.06299 191 192 173
0.10942 0.44363 -1.06023 186 189 169
0.10981 0.44349 -1.05922 174 176 159
0.11031 0.44346 -1.05888 165 165 148
0.11096 0.44359 -1.05938 158 159 141
0.11424 0.42988 -0.97559 113 119 117
0.09844 0.44511 -1.07725 154 150 136
0.09788 0.44450 -1.07739 150 150 137
0.09906 0.44520 -1.07754 145 138 124
0.09925 0.44459 -1.07377 98 85 79
0.10039 0.44462 -1.07350 116 85 86
0.10037 0.44377 -1.06827 152 132 127
0.10091 0.44376 -1.06800 167 156 151
0.10148 0.44321 -1.06786 165 160 147
0.10830 0.44356 -1.06368 182 182 161
0.10857 0.44328 -1.06185 192 191 173
0.10913 0.44274 -1.06172 189 191 168
0.10920 0.44283 -1.05883 186 189 170
0.10965 0.44275 -1.05817 177 180 163
0.11011 0.44270 -1.05765 169 172 155
0.11075 0.44281 -1.05808 164 167 150
0.11130 0.44228 -1.05795 162 162 145
0.11439 0.42963 -0.97599 112 118 116
0.09839 0.44441 -1.07663 151 150 136
0.09783 0.44380 -1.07677 150 151 141
0.09901 0.44448 -1.07682 141 135 122
0.09925 0.44399 -1.07364 101 87 76
0.09982 0.44401 -1.07351 95 73 67
0.10039 0.44402 -1.07337 115 87 85
0.10039 0.44321 -1.06832 152 132 128
0.10094 0.44322 -1.06817 165 156 147
0.10152 0.44267 -1.06803 163 161 143
0.11449 0.42935 -0.97626 106 115 112
0.11482 0.42903 -0.97618 91 105 102
0.11481 0.42936 -0.97618 91 104 107
0.11514 0.42904 -0.97610 88 105 109
0.09838 0.44378 -1.07635 152 147 139
0.09782 0.44317 -1.07648 151 150 139
0.09899 0.44384 -1.07649 139 132 122
0.09934 0.44352 -1.07431 100 83 74
0.09991 0.44353 -1.07417 96 67 63
0.10048 0.44354 -1.07399 116 86 87
0.10028 0.44246 -1.06722 150 133 128
0.10092 0.44260 -1.06782 163 156 142
0.10149 0.44204 -1.06768 161 162 146
0.09835 0.44311 -1.07585 151 145 138
0.09779 0.44250 -1.07598 152 151 135
0.09894 0.44314 -1.07585 137 128 118
0.09930 0.44285 -1.07380 98 81 69
0.09987 0.44287 -1.07366 94 69 62
0.10043 0.44287 -1.07344 114 91 87
0.10027 0.44185 -1.06698 149 137 130
0.10090 0.44198 -1.06750 161 160 147
0.08789 0.44358 -1.08730 154 150 135
0.08729 0.44356 -1.08745 158 154 142
0.08787 0.44419 -1.08731 154 149 135
0.08847 0.44421 -1.08717 153 148 139
0.08849 0.44360 -1.08716 151 148 131
0.08850 0.44298 -1.08715 152 145 131
0.09831 0.44243 -1.07531 153 150 133
0.09775 0.44183 -1.07544 151 149 140
0.09887 0.44243 -1.07507 135 129 112
0.09941 0.44240 -1.07460 92 75 61
0.09999 0.44243 -1.07455 92 63 55
0.10055 0.44243 -1.07432 115 84 85
0.10017 0.44114 -1.06606 153 136 131
0.10080 0.44126 -1.06659 163 155 145
0.10137 0.44072 -1.06646 161 155 148
0.10136 0.44128 -1.06647 163 156 142
0.10189 0.44186 -1.06635 162 162 147
0.10192 0.44073 -1.06634 162 159 151
0.11544 0.42901 -0.98008 144 147 135
0.12348 0.42357 -0.94107 133 130 117
0.12324 0.42381 -0.94113 136 132 124
0.12325 0.42333 -0.94112 139 133 128
0.12347 0.42381 -0.94107 131 127 116
0.12371 0.42382 -0.94102 130 125 113
0.12371 0.42358 -0.94102 133 128 114
0.08727 0.44284 -1.08677 154 153 137
0.08666 0.44344 -1.08691 160 155 144
0.08668 0.44283 -1.08691 159 156 144
0.08669 0.44222 -1.08690 158 153 143
0.08789 0.44225 -1.08662 152 145 131
0.08787 0.44286 -1.08662 152 148 131
0.08849 0.44227 -1.08648 150 145 131
0.09825 0.44173 -1.07456 149 151 131
0.09769 0.44113 -1.07469 147 147 137
0.09879 0.44170 -1.07412 134 130 112
0.09952 0.44195 -1.07546 95 79 65
0.10013 0.44202 -1.07568 95 65 59
0.10067 0.44198 -1.07519 115 85 82
0.10011 0.44047 -1.06536 153 134 127
0.10073 0.44058 -1.06585 162 155 144
0.10130 0.44004 -1.06572 159 155 150
0.11487 0.42869 -0.98048 175 177 157
0.11454 0.42834 -0.98055 172 174 157
0.11488 0.42835 -0.98047 172 175 157
0.11522 0.42871 -0.98045 169 171 153
0.11564 0.42876 -0.98063 139 142 135
0.08727 0.44216 -1.08625 156 150 138
0.08669 0.44153 -1.08639 155 154 146
0.09816 0.44099 -1.07357 146 147 132
0.09761 0.44039 -1.07370 146 146 132
0.09863 0.44087 -1.07250 131 123 106
0.09953 0.44135 -1.07541 94 77 63
0.10010 0.44137 -1.07528 94 65 62
0.10068 0.44139 -1.07518 115 87 89
0.10000 0.43975 -1.06432 148 131 127
0.10062 0.43986 -1.06483 159 152 143
0.10119 0.43932 -1.06470 158 156 148
0.11121 0.43895 -1.05399 166 167 150
0.11175 0.43843 -1.05386 173 173 158
0.11178 0.43900 -1.05407 174 173 157
0.11232 0.43848 -1.05394 175 174 156
0.11515 0.42832 -0.98021 167 170 155
0.11547 0.42833 -0.98011 135 137 131
0.08727 0.44150 -1.08591 155 152 144
0.08669 0.44087 -1.08604 154 155 136
0.08786 0.44152 -1.08577 151 145 133
0.08846 0.44153 -1.08563 150 144 126
0.08847 0.44093 -1.08562 148 144 130
0.09798 0.44013 -1.07168 145 144 128
0.09743 0.43953 -1.07181 150 145 135
0.09848 0.44005 -1.07095 130 120 104
0.09942 0.44059 -1.07424 95 76 66
0.09999 0.44060 -1.07410 94 66 68
0.10056 0.44062 -1.07396 114 84 87
0.09995 0.43910 -1.06372 148 132 129
0.10049 0.43912 -1.06359 157 153 146
0.10105 0.43858 -1.06346 158 157 145
0.10559 0.43892 -1.05997 161 163 149
0.10614 0.43838 -1.05984 154 156 140
0.11115 0.43834 -1.05354 166 167 154
0.11580 0.42815 -0.98107 131 134 121
0.08726 0.44083 -1.08548 153 154 136
0.08669 0.44020 -1.08561 153 155 133
0.08728 0.44022 -1.08547 151 152 133
0.08787 0.44024 -1.08533 149 148 134
0.08786 0.44085 -1.08533 150 148 132
0.08847 0.44026 -1.08519 146 145 134
0.09787 0.43937 -1.07044 150 142 130
0.09733 0.43878 -1.07057 148 142 131
0.09842 0.43936 -1.07018 133 118 105
0.09947 0.44005 -1.07455 97 75 69
0.10004 0.44007 -1.07442 95 65 69
0.10061 0.44009 -1.07428 116 87 89
0.09980 0.43834 -1.06236 148 134 129
0.10034 0.43836 -1.06223 156 156 143
0.10090 0.43782 -1.06209 158 156 145
0.10556 0.43833 -1.05970 161 163 145
0.10611 0.43779 -1.05956 153 153 139
0.11110 0.43776 -1.05322 165 168 152
0.11165 0.43779 -1.05321 172 175 159
0.11217 0.43781 -1.05309 174 177 161
0.11219 0.43727 -1.05308 173 175 160
0.09781 0.43869 -1.06972 148 141 128
0.09727 0.43810 -1.06984 147 142 127
0.09847 0.43884 -1.07048 129 116 105
0.09978 0.43774 -1.06204 150 135 126
0.10032 0.43776 -1.06191 157 153 141
0.10088 0.43722 -1.06177 158 154 146
0.10560 0.43780 -1.05982 160 161 140
0.10615 0.43726 -1.05969 153 154 142
0.10646 0.43762 -1.05816 154 153 139
0.10681 0.43747 -1.05689 164 165 149
0.10711 0.43727 -1.05533 173 175 161
0.10743 0.43709 -1.05392 180 181 165
0.10797 0.43657 -1.05379 178 180 161
0.09774 0.43800 -1.06887 147 141 128
0.09720 0.43741 -1.06900 147 141 127
0.09842 0.43817 -1.06987 128 120 108
0.09997 0.43740 -1.06352 149 135 127
0.10052 0.43742 -1.06340 156 151 143
0.10107 0.43688 -1.06326 156 156 144
0.10009 0.43697 -1.06436 149 137 126
0.10063 0.43698 -1.06423 152 152 143
0.10012 0.43643 -1.06453 149 138 126
0.10067 0.43645 -1.06440 153 152 135
0.10121 0.43647 -1.06427 155 155 141
0.10175 0.43704 -1.06414 155 155 140
0.10176 0.43648 -1.06414 156 157 144
0.10178 0.43592 -1.06413 154 155 142
0.10173 0.43838 -1.08328 115 94 91
0.09901 0.43655 -1.07486 119 112 97
0.09997 0.43703 -1.07819 85 67 61
0.10055 0.43704 -1.07805 92 62 63
0.10145 0.43743 -1.08071 117 94 93
0.11096 0.43476 -1.05494 154 158 144
0.11150 0.43478 -1.05490 164 169 154
0.11205 0.43426 -1.05476 169 172 155
0.09899 0.43592 -1.07450 118 110 98
0.09974 0.43614 -1.07597 87 68 61
0.10032 0.43616 -1.07583 91 63 65
0.11060 0.43431 -1.05589 154 157 141
0.11116 0.43435 -1.05597 153 155 141
0.11178 0.43443 -1.05631 165 167 153
0.09928 0.43566 -1.07709 120 109 92
0.09981 0.43561 -1.07642 87 69 57
0.10038 0.43563 -1.07628 92 68 61
0.11016 0.43382 -1.05649 160 163 148
0.10965 0.43326 -1.05661 164 168 148
0.11078 0.43389 -1.05683 149 152 140
0.11138 0.43396 -1.05710 149 150 139
0.11203 0.43406 -1.05758 163 163 148
0.11258 0.43352 -1.05745 166 168 151
0.11265 0.43413 -1.05791 168 170 152
0.11317 0.43470 -1.05779 170 173 156
0.11318 0.43415 -1.05779 170 173 154
0.11320 0.43360 -1.05778 169 170 152
0.09907 0.43481 -1.07495 117 106 88
0.09968 0.43486 -1.07510 85 65 54
0.10025 0.43488 -1.07496 90 65 60
0.10047 0.43451 -1.07174 117 96 93
0.10726 0.43339 -1.05895 158 160 142
0.10774 0.43336 -1.05845 165 167 149
0.10829 0.43283 -1.05832 170 172 154
0.09882 0.43391 -1.07239 114 105 90
0.09951 0.43407 -1.07344 86 67 59
0.10008 0.43409 -1.07331 89 62 62
0.10040 0.43384 -1.07097 116 95 95
0.10069 0.43358 -1.06856 147 138 126
0.10125 0.43359 -1.06842 149 149 133
0.10182 0.43304 -1.06829 150 149 133
0.09885 0.43335 -1.07255 113 107 91
0.09931 0.43325 -1.07141 84 65 56
0.09987 0.43327 -1.07128 89 61 58
0.10050 0.43335 -1.07173 118 96 95
0.10083 0.43312 -1.06955 146 139 125
0.10138 0.43313 -1.06935 147 147 128
0.10195 0.43258 -1.06921 147 150 134
0.09893 0.43284 -1.07318 112 104 89
0.10056 0.43282 -1.07210 119 95 92
0.10081 0.43252 -1.06928 146 138 125
0.10137 0.43254 -1.06915 146 149 130
0.10090 0.43202 -1.06987 144 137 126
0.10146 0.43203 -1.06974 144 147 131
0.10203 0.43148 -1.06960 146 145 124
0.10202 0.43205 -1.06961 145 147 134
0.10256 0.43264 -1.06948 147 149 132
0.10258 0.43207 -1.06947 147 149 135
0.10259 0.43149 -1.06947 147 149 126
0.11905 0.41950 -0.94344 132 130 118
0.11880 0.41973 -0.94350 127 122 115
0.11881 0.41949 -0.94350 127 125 116
0.11882 0.41924 -0.94349 128 128 113
0.11904 0.41974 -0.94344 133 126 115
0.11928 0.41975 -0.94339 143 135 120
0.11930 0.41782 -0.92764 181 169 155
0.10067 0.43173 -1.07272 119 100 98
0.10087 0.43140 -1.06947 143 136 126
0.10144 0.43084 -1.06934 145 141 124
0.10143 0.43142 -1.06934 145 144 127
0.10200 0.43086 -1.06920 145 144 124
0.11370 0.43143 -1.06302 159 162 143
0.11423 0.43201 -1.06290 164 166 146
0.11436 0.43151 -1.06349 160 163 145
0.11490 0.43209 -1.06337 163 166 146
0.11501 0.43159 -1.06388 161 164 147
0.11555 0.43217 -1.06376 163 166 148
0.11558 0.43104 -1.06375 150 154 134
0.11554 0.43159 -1.06362 160 164 146
0.11608 0.43217 -1.06349 163 165 151
0.11611 0.43104 -1.06348 150 154 134
0.11886 0.41759 -0.92765 175 166 149
0.11906 0.41740 -0.92760 193 183 169
0.09712 0.42976 -1.06091 131 130 110
0.09660 0.42919 -1.06104 134 134 117
0.10085 0.43131 -1.07419 120 99 98
0.10734 0.43010 -1.05887 150 155 140
0.10789 0.43013 -1.05885 159 162 145
0.10844 0.42959 -1.05871 161 164 145
0.11106 0.43051 -1.06098 148 150 131
0.11153 0.43049 -1.06046 140 143 126
0.11388 0.43096 -1.06392 150 152 134
0.11460 0.43108 -1.06465 150 153 134
0.11517 0.43053 -1.06452 131 135 114
0.11908 0.41901 -0.94348 137 133 118
0.09708 0.42916 -1.06042 131 126 111
0.10082 0.43068 -1.07379 122 101 96
0.10082 0.43019 -1.06880 147 137 123
0.10138 0.43020 -1.06867 144 145 125
0.10193 0.43022 -1.06854 146 146 132
0.10195 0.42965 -1.06853 145 144 130
0.10513 0.42943 -1.05880 147 150 129
0.10458 0.42996 -1.05893 148 149 134
0.10459 0.42941 -1.05893 148 151 132
0.10461 0.42886 -1.05892 146 149 130
0.10514 0.42888 -1.05880 145 149 132
0.10584 0.42957 -1.05986 142 142 122
0.10639 0.42903 -1.05972 135 138 124
0.10704 0.42968 -1.06038 143 147 130
0.10756 0.42969 -1.06014 150 153 136
0.10810 0.42971 -1.06006 157 160 142
0.10866 0.42917 -1.05993 159 163 143
0.10924 0.42978 -1.06012 160 164 142
0.10983 0.42982 -1.06030 151 156 134
0.11048 0.42991 -1.06079 145 149 131
0.11112 0.42999 -1.06125 141 144 127
0.11171 0.43003 -1.06136 132 135 116
0.11241 0.43014 -1.06208 126 127 110
0.11305 0.43021 -1.06247 132 131 118
0.09648 0.42852 -1.05975 133 134 118
0.09594 0.42904 -1.05988 135 136 114
0.09595 0.42850 -1.05987 136 134 116
0.09597 0.42796 -1.05987 134 133 114
0.09650 0.42797 -1.05974 135 133 115
0.09709 0.42861 -1.06037 129 125 110
0.10086 0.43012 -1.07400 124 102 99
0.10087 0.42964 -1.06908 146 138 122
0.10144 0.42909 -1.06894 145 141 121
0.10143 0.42966 -1.06895 146 143 123
0.10200 0.42911 -1.06881 145 142 123
0.10608 0.42918 -1.06136 141 144 129
0.10555 0.42861 -1.06148 144 147 132
0.10664 0.42864 -1.06123 134 136 122
0.10728 0.42929 -1.06185 142 144 130
0.10785 0.42932 -1.06186 150 152 136
0.10839 0.42934 -1.06176 156 159 140
0.10895 0.42880 -1.06162 156 162 141
0.10943 0.42933 -1.06117 158 162 143
0.11001 0.42937 -1.06127 148 153 134
0.11058 0.42941 -1.06131 143 147 130
0.11124 0.42949 -1.06185 138 141 124
0.11187 0.42956 -1.06217 127 129 109
0.11260 0.42968 -1.06307 117 117 99
0.11317 0.42914 -1.06293 117 116 100
0.11323 0.42974 -1.06334 120 117 103
0.11379 0.42919 -1.06320 119 116 99
0.09716 0.42811 -1.06085 130 125 107
0.09664 0.42755 -1.06097 137 133 118
0.09908 0.42891 -1.06830 83 55 56
0.10078 0.42945 -1.07315 127 101 98
0.10083 0.42903 -1.06866 145 135 121
0.10141 0.42848 -1.06852 143 141 130
0.10753 0.42889 -1.06340 141 143 127
0.10700 0.42831 -1.06352 134 136 117
0.10811 0.42892 -1.06345 150 153 135
0.10865 0.42893 -1.06326 156 159 141
0.10960 0.42887 -1.06211 155 161 143
0.11015 0.42889 -1.06201 147 152 134
0.11066 0.42889 -1.06164 141 145 127
0.11121 0.42891 -1.06156 137 140 122
0.11189 0.42900 -1.06219 126 128 108
0.11257 0.42909 -1.06281 115 117 98
0.11314 0.42855 -1.06267 118 117 99
0.11916 0.41834 -0.94409 127 121 110
0.11893 0.41809 -0.94415 124 116 108
0.09728 0.42766 -1.06187 131 123 110
0.09676 0.42710 -1.06199 135 132 118
0.09915 0.42839 -1.06883 83 56 53
0.09966 0.42836 -1.06824 92 58 57
0.10070 0.42879 -1.07232 129 104 95
0.10094 0.42853 -1.06938 145 135 123
0.10151 0.42798 -1.06924 142 140 130
0.10927 0.42842 -1.06344 156 157 136
0.10980 0.42843 -1.06322 154 155 135
0.11037 0.42845 -1.06320 146 149 130
0.11093 0.42791 -1.06306 141 145 123
0.11084 0.42843 -1.06261 141 144 124
0.11140 0.42845 -1.06256 137 141 117
0.11203 0.42851 -1.06287 126 129 108
0.11263 0.42855 -1.06303 116 118 100
0.11320 0.42801 -1.06289 118 121 100
0.09740 0.42720 -1.06285 128 124 113
0.09925 0.42789 -1.06960 82 54 55
0.09975 0.42785 -1.06887 91 57 60
0.10059 0.42811 -1.07125 126 103 96
0.10096 0.42797 -1.06948 144 136 124
0.10154 0.42741 -1.06934 139 140 129
0.10966 0.42808 -1.06577 147 148 128
0.11068 0.42806 -1.06491 141 144 122
0.11124 0.42751 -1.06477 141 144 126
0.11163 0.42801 -1.06380 137 141 116
0.11220 0.42803 -1.06372 126 130 107
0.11276 0.42748 -1.06359 118 120 101
0.11279 0.42807 -1.06380 116 119 100
0.11335 0.42752 -1.06366 121 123 104
0.09870 0.42730 -1.06964 95 85 75
0.09933 0.42738 -1.07019 79 56 55
0.09982 0.42733 -1.06938 94 62 69
0.10065 0.42756 -1.07161 121 102 102
0.10940 0.42766 -1.06763 148 147 124
0.10986 0.42762 -1.06687 129 131 113
0.11045 0.42765 -1.06691 119 121 106
0.11086 0.42758 -1.06589 132 135 117
0.11143 0.42703 -1.06575 141 144 129
0.11189 0.42757 -1.06517 137 139 118
0.11243 0.42758 -1.06495 124 127 107
0.11300 0.42703 -1.06481 119 119 102
0.09888 0.42686 -1.07112 95 82 68
0.09947 0.42689 -1.07123 80 55 50
0.10000 0.42689 -1.07081 92 62 61
0.10063 0.42695 -1.07125 120 102 96
0.10956 0.42717 -1.06850 143 144 122
0.10901 0.42657 -1.06863 145 148 127
0.10994 0.42708 -1.06727 114 116 100
0.11050 0.42710 -1.06713 105 107 96
0.11105 0.42711 -1.06691 127 129 117
0.11789 0.41592 -0.92746 139 132 120
0.11768 0.41612 -0.92750 130 121 106
0.11769 0.41592 -0.92750 133 126 112
0.11788 0.41612 -0.92746 139 131 117
0.11816 0.41594 -0.92754 145 137 127
0.09897 0.42634 -1.07185 96 80 66
0.09957 0.42638 -1.07202 81 53 46
0.10011 0.42638 -1.07168 92 61 59
0.10060 0.42635 -1.07090 122 103 99
0.10670 0.42647 -1.06875 138 141 123
0.10612 0.42703 -1.06889 139 142 125
0.10614 0.42645 -1.06888 138 141 121
0.10616 0.42588 -1.06888 137 139 125
0.10968 0.42665 -1.06911 141 144 123
0.11002 0.42654 -1.06762 112 114 100
0.11064 0.42659 -1.06785 103 104 97
0.11123 0.42662 -1.06790 127 129 117
0.11178 0.42663 -1.06767 140 144 129
0.11248 0.42672 -1.06832 131 133 119
0.11327 0.42685 -1.06946 118 118 101
0.11392 0.42690 -1.06977 120 119 100
0.11447 0.42750 -1.06964 123 124 106
