ply
format ascii 1.0
element face 0
property list uchar int vertex_indices
element vertex 992
property float x
property float y
property float z
property uchar diffuse_red
property uchar diffuse_green
property uchar diffuse_blue
end_header
0.10626 0.42898 -0.87101 227 222 214
0.10585 0.42945 -0.87120 227 224 217
0.10583 0.42899 -0.87117 227 223 218
0.10581 0.42854 -0.87115 226 224 222
0.10628 0.42943 -0.87103 227 225 214
0.10671 0.42942 -0.87087 222 217 206
0.10736 0.42926 -0.87183 220 215 204
0.10781 0.42971 -0.87168 207 199 188
0.10777 0.42879 -0.87164 202 197 187
0.13123 0.43374 -0.92781 220 215 199
0.10630 0.43261 -0.95822 118 124 129
0.10691 0.43191 -0.95794 101 116 118
0.10564 0.43163 -0.95668 114 123 118
0.10624 0.43094 -0.95640 104 113 119
0.10704 0.43166 -0.95651 108 124 128
0.10758 0.43160 -0.95604 118 131 134
0.09931 0.42864 -0.94496 195 197 187
0.09874 0.42930 -0.94522 199 202 184
0.09871 0.42866 -0.94519 200 200 190
0.09869 0.42802 -0.94516 198 198 191
0.10498 0.43067 -0.95514 115 119 123
0.10631 0.43067 -0.95484 108 124 127
0.10704 0.43069 -0.95483 118 132 129
0.11628 0.42222 -0.90449 215 210 192
0.11574 0.42168 -0.90467 215 210 198
0.10440 0.42975 -0.95381 114 117 123
0.10500 0.42906 -0.95353 103 108 106
0.10510 0.42977 -0.95375 103 112 116
0.10570 0.42908 -0.95348 108 119 113
0.10573 0.42975 -0.95351 108 122 120
0.10649 0.42979 -0.95358 117 132 127
0.10120 0.42689 -0.93805 178 181 171
0.11613 0.42163 -0.90426 214 209 193
0.11559 0.42109 -0.90444 213 210 196
0.10586 0.42886 -0.95214 116 127 123
0.10521 0.42821 -0.95235 108 117 115
0.10694 0.42904 -0.95296 147 149 149
0.11129 0.41805 -0.88757 189 185 165
0.11079 0.41755 -0.88773 188 185 164
0.11126 0.41754 -0.88755 189 185 163
0.11174 0.41753 -0.88737 202 198 174
0.11172 0.41802 -0.88733 202 196 177
0.11217 0.41751 -0.88713 212 208 185
0.11202 0.41796 -0.88688 212 208 188
0.11247 0.41744 -0.88667 212 207 188
0.10568 0.42813 -0.95177 115 127 123
0.10503 0.42749 -0.95198 108 118 117
0.10565 0.42747 -0.95174 115 125 122
0.10629 0.42811 -0.95150 144 151 147
0.10012 0.42495 -0.93411 189 191 178
0.10626 0.42745 -0.95146 143 150 140
0.10561 0.42680 -0.95167 116 124 122
0.10623 0.42678 -0.95143 146 150 142
0.01497 0.42428 -0.97132 158 149 133
0.01553 0.42364 -0.97106 151 143 132
0.01498 0.42390 -0.97293 164 155 140
0.01554 0.42326 -0.97267 152 143 131
0.03160 0.43455 -1.05140 172 163 143
0.03076 0.43373 -1.05167 172 163 146
0.03240 0.43455 -1.05123 163 154 132
0.10090 0.40992 -0.86814 192 195 168
0.10046 0.40948 -0.86828 174 177 157
0.10130 0.40946 -0.86795 192 191 163
0.03148 0.43354 -1.05022 172 162 142
0.03065 0.43272 -1.05049 172 164 146
0.03230 0.43358 -1.05036 165 154 133
0.03161 0.42399 -1.03342 160 151 128
0.02206 0.42062 -1.02598 128 122 110
0.02137 0.42141 -1.02630 94 91 90
0.02133 0.42064 -1.02626 107 102 95
0.02209 0.42139 -1.02602 102 100 98
0.04950 0.42238 -1.04521 128 119 113
0.05034 0.42239 -1.04526 113 103 98
0.05110 0.42152 -1.04491 106 99 92
0.05703 0.42183 -1.03919 118 103 96
0.05779 0.42179 -1.03871 128 115 107
0.05854 0.42093 -1.03837 129 118 110
0.02129 0.41918 -1.02701 153 145 124
0.02053 0.41842 -1.02725 151 141 123
0.02198 0.41838 -1.02669 164 154 128
0.05025 0.42150 -1.04480 112 104 93
0.05101 0.42063 -1.04445 102 100 90
0.05686 0.42089 -1.03828 114 101 92
0.05763 0.42086 -1.03785 126 113 106
0.04998 0.42046 -1.04297 109 106 93
0.05670 0.41997 -1.03746 111 100 85
0.05588 0.41916 -1.03772 104 95 77
0.05749 0.41995 -1.03716 123 112 98
0.05832 0.41996 -1.03717 130 119 104
0.05915 0.42078 -1.03691 129 120 105
0.05911 0.41994 -1.03687 131 120 103
0.05907 0.41910 -1.03683 129 120 104
0.10679 0.40942 -0.93028 102 106 110
0.11516 0.41042 -0.93880 98 96 98
0.04969 0.41940 -1.04089 110 107 96
0.05065 0.41952 -1.04196 102 101 89
0.05148 0.42034 -1.04169 101 100 90
0.05144 0.41950 -1.04165 103 100 85
0.05140 0.41866 -1.04161 104 99 91
0.05740 0.41908 -1.03680 120 113 94
0.05815 0.41822 -1.03646 126 120 99
0.05823 0.41909 -1.03678 128 119 102
0.05898 0.41823 -1.03644 128 120 102
0.11433 0.40960 -0.93715 118 114 109
0.04940 0.41837 -1.03889 110 108 99
0.05031 0.41844 -1.03956 104 100 94
0.05106 0.41759 -1.03922 104 99 88
0.10831 0.40812 -0.92926 141 143 133
0.10918 0.40817 -0.92964 151 147 140
0.10991 0.40818 -0.92973 148 148 137
0.05029 0.41762 -1.03970 105 100 87
0.05104 0.41677 -1.03935 102 100 89
0.10638 0.40724 -0.92671 152 152 139
0.10691 0.40663 -0.92646 156 153 141
0.05781 0.41112 -1.04158 109 100 86
0.05698 0.41029 -1.04185 104 94 83
0.10294 0.40025 -0.89815 163 159 140
0.10342 0.39971 -0.89793 155 156 135
0.07579 0.40882 -1.03302 123 114 100
0.07504 0.40969 -1.03337 123 116 102
0.07500 0.40884 -1.03333 122 113 102
0.07496 0.40800 -1.03329 121 111 93
0.07663 0.40964 -1.03275 128 123 104
0.05781 0.40862 -1.04220 107 98 82
0.05697 0.40779 -1.04247 99 93 78
0.05861 0.40860 -1.04189 116 105 92
0.05941 0.40858 -1.04158 121 112 95
0.06017 0.40770 -1.04124 120 113 93
0.07677 0.40802 -1.03367 129 117 100
0.07753 0.40715 -1.03333 125 119 97
0.09569 0.39977 -0.91402 116 112 94
0.09514 0.39923 -0.91420 115 110 96
0.09467 0.39881 -0.90794 148 150 135
0.09516 0.39826 -0.90772 147 151 133
0.09624 0.39865 -0.91393 112 113 99
0.09569 0.39810 -0.91411 112 111 92
0.09622 0.39809 -0.91391 112 114 100
0.09674 0.39807 -0.91370 131 134 116
0.09780 0.39804 -0.90449 102 104 91
0.09828 0.39803 -0.90423 104 106 91
0.09877 0.39801 -0.90402 109 111 96
0.09754 0.39755 -0.90519 115 118 100
0.09780 0.39751 -0.90450 101 101 88
0.09828 0.39696 -0.90428 101 99 89
0.09823 0.39749 -0.90417 102 101 89
0.09865 0.39746 -0.90380 107 106 93
0.09895 0.39742 -0.90320 127 127 111
0.09929 0.39739 -0.90270 147 149 133
0.09908 0.39730 -0.90113 157 160 138
0.09961 0.39781 -0.90096 160 162 142
0.09958 0.39728 -0.90094 158 161 138
0.09956 0.39675 -0.90091 156 159 137
0.10032 0.39689 -0.89455 147 149 127
0.10078 0.39636 -0.89434 156 156 133
0.08446 0.40378 -1.01964 111 98 90
0.08365 0.40298 -1.01990 105 93 81
0.08538 0.40379 -1.01994 116 103 93
0.09804 0.39700 -0.90500 99 100 87
0.09852 0.39645 -0.90478 98 99 90
0.09871 0.39693 -0.90394 103 103 94
0.09874 0.39687 -0.90281 123 125 112
0.09922 0.39632 -0.90259 142 145 127
0.10088 0.39644 -0.89559 147 149 127
0.10134 0.39590 -0.89538 154 154 135
0.08371 0.40280 -1.01682 110 96 90
0.08291 0.40201 -1.01708 104 93 77
0.08466 0.40282 -1.01727 114 101 91
0.08538 0.40279 -1.01677 117 108 94
0.08618 0.40359 -1.01651 117 110 91
0.08614 0.40277 -1.01648 117 112 94
0.08611 0.40196 -1.01644 117 111 95
0.09894 0.39642 -0.90443 101 102 94
0.09943 0.39587 -0.90421 116 118 108
0.09890 0.39635 -0.90314 119 120 108
0.09937 0.39580 -0.90292 141 143 130
0.10110 0.39600 -0.89709 130 132 117
0.10058 0.39549 -0.89726 128 127 109
0.10146 0.39598 -0.89667 146 148 131
0.10192 0.39544 -0.89645 154 152 134
0.08312 0.40188 -1.01463 107 96 88
0.08233 0.40109 -1.01489 103 95 76
0.08397 0.40188 -1.01470 112 102 90
0.08470 0.40105 -1.01437 113 106 91
0.08471 0.40185 -1.01431 115 108 92
0.08543 0.40102 -1.01398 115 109 95
0.10149 0.39552 -0.89784 130 131 116
0.10177 0.39549 -0.89727 146 146 132
0.10224 0.39495 -0.89705 152 153 131
0.10322 0.39492 -0.91942 98 96 87
0.10374 0.39432 -0.91919 96 95 83
0.03190 0.39642 -0.95041 79 82 98
0.03132 0.39585 -0.95060 64 67 90
0.03238 0.39638 -0.94946 84 87 103
0.03284 0.39632 -0.94829 91 94 111
0.03180 0.39580 -0.94965 76 76 97
0.03122 0.39523 -0.94984 63 66 90
0.03178 0.39522 -0.94963 79 79 101
0.03233 0.39520 -0.94941 85 86 104
0.03231 0.39577 -0.94894 87 87 104
0.03279 0.39573 -0.94812 87 90 107
0.03271 0.39513 -0.94756 77 80 95
0.03214 0.39456 -0.94775 70 77 96
0.03269 0.39454 -0.94754 68 74 92
0.03327 0.39511 -0.94739 76 81 94
0.03379 0.39451 -0.94715 112 117 129
0.10915 0.38943 -0.91347 110 111 88
0.10859 0.38888 -0.91365 111 107 81
0.10925 0.38886 -0.91367 112 109 89
0.10869 0.38830 -0.91385 110 107 84
0.10923 0.38829 -0.91365 110 106 86
0.10905 0.38884 -0.91209 116 114 96
0.10942 0.38827 -0.91280 112 106 89
0.10886 0.38771 -0.91298 110 105 84
0.10940 0.38770 -0.91278 111 105 86
0.12371 0.38689 -0.87933 139 133 122
0.12420 0.38738 -0.87918 138 133 119
0.12418 0.38688 -0.87915 139 133 123
0.12416 0.38638 -0.87913 140 132 124
0.03491 0.38688 -0.94962 86 99 104
0.03544 0.38627 -0.94937 41 49 72
0.12665 0.38202 -0.91158 113 111 98
0.09854 0.38089 -0.97511 144 142 118
0.09790 0.38163 -0.97540 144 141 117
0.09786 0.38091 -0.97537 146 144 117
0.09857 0.38162 -0.97514 143 138 117
0.09925 0.38160 -0.97488 143 138 117
0.09922 0.38087 -0.97485 144 140 119
0.09737 0.38022 -0.97405 147 148 121
0.09673 0.38096 -0.97434 146 143 115
0.09669 0.38024 -0.97431 145 146 117
0.09801 0.37948 -0.97375 148 151 133
0.09838 0.38018 -0.97471 145 147 125
0.09934 0.38014 -0.97523 144 145 124
0.10005 0.38084 -0.97500 143 140 120
0.09952 0.38016 -0.97360 142 141 121
0.10023 0.38086 -0.97337 143 141 121
0.10020 0.38014 -0.97333 142 140 121
0.10025 0.38020 -0.96933 146 145 117
0.09961 0.38093 -0.96962 143 143 120
0.09958 0.38022 -0.96958 144 143 120
0.10028 0.38091 -0.96936 144 142 116
0.10094 0.38090 -0.96910 145 142 116
0.10036 0.38023 -0.96761 148 147 116
0.10106 0.38092 -0.96738 145 142 120
0.10036 0.38026 -0.96560 148 146 121
0.10105 0.38094 -0.96538 142 140 119
0.10019 0.38030 -0.96321 145 145 124
0.10088 0.38098 -0.96299 142 140 119
0.10085 0.38029 -0.96295 143 144 124
0.11099 0.38018 -0.94827 139 136 107
0.11224 0.38013 -0.94936 137 134 104
0.11371 0.38005 -0.95091 131 129 100
0.09933 0.37941 -0.97527 146 149 133
0.09950 0.37944 -0.97359 143 145 126
0.09986 0.37944 -0.97248 143 144 123
0.10025 0.37945 -0.97145 144 146 123
0.10028 0.37949 -0.96948 149 151 124
0.10033 0.37952 -0.96757 154 155 126
0.10047 0.37955 -0.96595 154 155 129
0.10034 0.37959 -0.96363 149 153 128
0.10477 0.37965 -0.95253 152 154 126
0.10543 0.38031 -0.95232 144 148 122
0.10537 0.37896 -0.95226 154 153 129
0.10587 0.37960 -0.95340 150 152 128
0.10654 0.38025 -0.95319 148 149 124
0.10684 0.37955 -0.95393 153 154 135
0.10750 0.38021 -0.95371 151 152 128
0.10744 0.37886 -0.95365 158 159 141
0.10790 0.37950 -0.95466 154 157 139
0.10857 0.38017 -0.95444 148 151 129
0.10851 0.37880 -0.95438 158 162 141
0.10886 0.37946 -0.95516 151 157 135
0.10954 0.37944 -0.95500 151 156 134
0.09919 0.37870 -0.97492 149 152 133
0.09942 0.37872 -0.97343 149 152 131
0.09975 0.37873 -0.97222 148 152 130
0.10328 0.37899 -0.95429 159 164 141
0.10396 0.37897 -0.95415 156 160 138
0.10456 0.37828 -0.95387 150 153 134
0.10471 0.37894 -0.95417 152 156 132
0.10531 0.37825 -0.95390 154 153 135
0.10713 0.37885 -0.95464 157 155 136
0.10646 0.37819 -0.95486 155 154 134
0.10710 0.37817 -0.95461 158 156 135
0.10774 0.37815 -0.95437 159 158 138
0.10961 0.37875 -0.95520 155 159 137
0.10894 0.37808 -0.95541 157 160 138
0.11022 0.37805 -0.95492 153 155 130
0.11107 0.37884 -0.94851 141 139 109
0.11167 0.37815 -0.94824 138 137 109
0.09916 0.37797 -0.97490 156 160 137
0.09948 0.37799 -0.97366 158 161 140
0.10001 0.37799 -0.97300 157 161 141
0.10084 0.37795 -0.97315 158 162 143
0.10245 0.37831 -0.95590 158 161 142
0.10242 0.37763 -0.95587 155 158 133
0.10306 0.37761 -0.95562 154 156 132
0.10324 0.37828 -0.95601 156 160 139
0.10384 0.37758 -0.95573 151 153 131
0.10399 0.37825 -0.95605 153 158 135
0.10460 0.37755 -0.95577 151 154 133
0.10481 0.37821 -0.95624 152 156 135
0.10542 0.37751 -0.95596 153 156 137
0.13658 0.37786 -0.92264 105 101 86
0.13677 0.37787 -0.92180 130 124 108
0.13718 0.37787 -0.92131 137 132 113
0.13773 0.37723 -0.92105 139 134 115
0.09875 0.37729 -0.97383 168 171 150
0.09940 0.37655 -0.97353 177 179 163
0.09915 0.37730 -0.97281 168 171 152
0.09970 0.37730 -0.97220 167 170 152
0.13707 0.37719 -0.92340 104 103 90
0.13698 0.37723 -0.92214 129 127 110
0.13754 0.37659 -0.92189 134 135 114
0.13753 0.37722 -0.92185 136 133 113
0.13809 0.37657 -0.92160 136 136 115
0.01894 0.38129 -0.91718 64 75 105
0.01849 0.38180 -0.91738 67 74 95
0.01847 0.38131 -0.91736 63 71 97
0.01845 0.38081 -0.91734 63 73 100
0.01938 0.38079 -0.91698 144 154 181
0.10134 0.37674 -0.96447 170 174 153
0.13715 0.37655 -0.92354 103 105 91
0.13669 0.37663 -0.92170 128 129 110
0.13724 0.37599 -0.92145 131 134 113
0.01892 0.38079 -0.91731 84 97 127
0.01890 0.38030 -0.91728 128 137 164
0.01936 0.38029 -0.91710 186 195 212
0.13610 0.37539 -0.92195 105 104 81
0.13433 0.37559 -0.91815 127 129 103
0.13488 0.37496 -0.91790 131 133 113
0.01820 0.38001 -0.91252 88 96 133
0.01863 0.37951 -0.91232 120 127 157
0.13362 0.37500 -0.91817 103 104 84
0.11200 0.37318 -0.97185 165 167 147
0.11233 0.37321 -0.97075 164 166 145
0.11301 0.37320 -0.97048 163 166 142
0.11298 0.37247 -0.97045 169 173 150
0.13095 0.37466 -0.91411 103 104 90
0.13108 0.37469 -0.91323 129 129 111
0.13162 0.37408 -0.91299 133 132 118
0.11091 0.37244 -0.97313 174 177 155
0.11157 0.37169 -0.97283 180 184 158
0.11158 0.37243 -0.97281 174 177 156
0.11212 0.37243 -0.97219 172 175 154
0.11277 0.37168 -0.97189 175 179 158
0.11245 0.37246 -0.97109 170 174 152
0.11310 0.37172 -0.97079 173 177 157
0.12995 0.37417 -0.91258 103 103 88
0.12955 0.37426 -0.91091 129 129 112
0.13008 0.37365 -0.91067 131 133 116
0.11215 0.37169 -0.97231 178 181 159
0.11143 0.37098 -0.97254 180 184 159
0.11212 0.37096 -0.97227 178 183 158
0.11280 0.37094 -0.97201 176 179 157
0.12873 0.37371 -0.91072 101 100 83
0.12858 0.37377 -0.90945 128 131 110
0.12911 0.37317 -0.90921 130 133 114
0.08596 0.37248 -0.96535 153 155 134
0.08535 0.37318 -0.96563 148 151 130
0.08532 0.37250 -0.96560 150 152 129
0.08599 0.37317 -0.96538 151 154 134
0.08664 0.37315 -0.96513 154 158 139
0.08658 0.37177 -0.96507 159 162 145
0.08654 0.37247 -0.96490 157 160 139
0.08722 0.37314 -0.96468 156 159 143
0.08716 0.37177 -0.96462 161 164 145
0.12732 0.37329 -0.90858 105 100 83
0.12766 0.37329 -0.90806 129 130 109
0.12818 0.37270 -0.90782 131 129 114
0.08548 0.37177 -0.96619 153 153 131
0.08487 0.37248 -0.96647 149 151 127
0.08484 0.37179 -0.96644 152 151 128
0.08481 0.37110 -0.96641 153 151 131
0.08610 0.37106 -0.96591 155 158 138
0.08594 0.37179 -0.96532 155 158 139
0.01075 0.37702 -0.90358 52 60 79
0.01033 0.37703 -0.90375 66 72 80
0.01077 0.37747 -0.90360 50 60 83
0.01120 0.37746 -0.90344 50 58 86
0.01118 0.37701 -0.90342 52 58 83
0.01116 0.37655 -0.90340 52 59 78
0.12124 0.37117 -0.90033 97 89 70
0.11280 0.36627 -0.97611 169 173 154
0.11353 0.36699 -0.97588 172 174 157
0.11350 0.36625 -0.97584 170 174 154
0.11346 0.36551 -0.97581 175 181 163
0.11981 0.37057 -0.90219 103 92 75
0.11927 0.37002 -0.90237 106 97 76
0.12051 0.37065 -0.90023 95 88 71
0.12065 0.37070 -0.89943 101 93 76
0.11347 0.36443 -0.99222 185 189 168
0.11287 0.36470 -0.98854 183 186 167
0.11165 0.36538 -0.97929 179 186 169
0.11179 0.36548 -0.97765 177 185 169
0.11220 0.36552 -0.97666 177 185 168
0.11281 0.36552 -0.97619 174 182 165
0.11348 0.36476 -0.97588 188 192 175
0.12013 0.36996 -0.90269 105 95 78
0.11957 0.36941 -0.90287 107 100 75
0.12010 0.36940 -0.90267 105 99 79
0.12063 0.36938 -0.90246 103 97 78
0.12035 0.37012 -0.89999 98 91 75
0.12031 0.37019 -0.89892 102 96 81
0.00901 0.37561 -0.89890 149 143 127
0.00862 0.37606 -0.89908 150 144 133
0.00860 0.37562 -0.89906 150 144 131
0.00858 0.37518 -0.89904 151 146 130
0.00903 0.37605 -0.89892 148 143 130
0.00944 0.37604 -0.89876 144 137 121
0.11325 0.36354 -0.99387 196 199 184
0.11304 0.36374 -0.99116 196 198 183
0.11261 0.36398 -0.98794 193 196 179
0.11147 0.36466 -0.97890 192 197 182
0.11163 0.36476 -0.97731 189 197 182
0.11199 0.36481 -0.97621 189 195 180
0.11258 0.36482 -0.97568 186 192 175
0.11464 0.36564 -0.96203 164 166 147
0.11434 0.36582 -0.95964 160 161 144
0.12008 0.36961 -0.89957 99 93 76
0.11953 0.36907 -0.89975 105 97 77
0.00900 0.37521 -0.89830 151 144 125
0.00857 0.37479 -0.89844 153 146 126
0.00939 0.37477 -0.89812 146 137 118
0.00941 0.37527 -0.89712 146 138 118
0.01889 0.37361 -0.91337 71 76 100
0.01846 0.37410 -0.91357 67 76 101
0.01843 0.37362 -0.91355 66 73 99
0.01841 0.37313 -0.91352 67 70 100
0.01891 0.37409 -0.91339 72 79 101
0.01937 0.37408 -0.91321 82 84 100
0.01932 0.37363 -0.91264 82 82 100
0.01980 0.37411 -0.91249 90 89 101
0.01978 0.37362 -0.91247 91 90 101
0.01975 0.37314 -0.91244 93 92 103
0.11286 0.36283 -0.99294 205 210 192
0.11275 0.36301 -0.99048 206 209 192
0.11222 0.36329 -0.98700 204 207 192
0.11126 0.36395 -0.97843 204 207 193
0.11532 0.36387 -0.97643 194 199 183
0.11605 0.36460 -0.97620 184 188 174
0.11624 0.36380 -0.97669 193 198 184
0.11450 0.36495 -0.96178 166 169 150
0.11514 0.36423 -0.96149 160 163 143
0.11420 0.36514 -0.95938 162 164 145
0.11483 0.36442 -0.95909 158 159 135
0.11405 0.36529 -0.95734 159 159 138
0.11467 0.36458 -0.95705 152 153 129
0.00980 0.37484 -0.89676 126 117 105
0.00938 0.37442 -0.89689 145 136 121
0.01023 0.37527 -0.89662 88 85 86
0.01021 0.37483 -0.89660 91 87 86
0.11256 0.36211 -0.99222 214 218 201
0.11079 0.36331 -0.97731 213 216 203
0.11495 0.36320 -0.97562 205 208 195
0.11580 0.36315 -0.97570 202 207 192
0.11428 0.36429 -0.96133 165 168 148
0.11492 0.36356 -0.96104 156 160 138
0.00978 0.37442 -0.89659 126 119 107
0.00976 0.37399 -0.89657 128 121 105
0.01017 0.37398 -0.89641 93 91 84
0.01019 0.37417 -0.89955 90 87 84
0.01062 0.37460 -0.89941 58 61 75
0.01058 0.37372 -0.89937 60 63 71
0.11499 0.36258 -0.97385 208 214 199
0.11495 0.36315 -0.96639 179 184 164
0.11462 0.36336 -0.96386 170 174 155
0.11449 0.36353 -0.96181 161 165 144
0.11512 0.36280 -0.96152 154 156 136
0.00936 0.37406 -0.89587 146 136 122
0.00898 0.37451 -0.89605 152 141 124
0.00894 0.37364 -0.89601 154 142 128
0.00975 0.37362 -0.89570 130 122 106
0.11436 0.36270 -0.96332 167 171 153
0.11500 0.36197 -0.96303 155 158 140
0.11411 0.36290 -0.96102 158 160 141
0.11474 0.36217 -0.96073 150 152 135
0.12087 0.36771 -0.89495 130 126 104
0.12140 0.36823 -0.89477 131 125 109
0.12137 0.36769 -0.89475 129 125 108
0.00934 0.37364 -0.89577 147 136 122
0.00932 0.37321 -0.89575 147 137 121
0.00973 0.37320 -0.89559 134 126 111
0.11987 0.36726 -0.89442 114 109 84
0.12062 0.36721 -0.89459 125 121 96
0.12132 0.36716 -0.89467 127 124 104
0.12185 0.36768 -0.89450 128 127 111
0.12179 0.36715 -0.89443 128 127 108
0.12232 0.36768 -0.89426 128 129 109
0.12230 0.36714 -0.89423 129 130 109
0.12228 0.36660 -0.89421 131 127 110
0.00892 0.37327 -0.89536 155 142 126
0.00854 0.37371 -0.89553 156 143 129
0.00852 0.37328 -0.89551 157 143 131
0.00850 0.37285 -0.89549 157 143 133
0.11947 0.36679 -0.89383 106 99 77
0.11894 0.36627 -0.89400 102 95 77
0.12036 0.36671 -0.89421 114 112 89
0.12100 0.36667 -0.89421 121 120 99
0.12148 0.36666 -0.89398 129 124 107
0.00891 0.37285 -0.89512 154 141 126
0.00848 0.37244 -0.89525 157 144 135
0.00889 0.37243 -0.89510 154 141 130
0.00931 0.37284 -0.89496 149 138 118
0.00972 0.37297 -0.89320 139 129 112
0.01014 0.37338 -0.89307 108 103 94
0.01012 0.37296 -0.89305 114 106 98
0.01010 0.37253 -0.89303 118 108 96
0.10640 0.36041 -0.97060 222 227 217
0.10711 0.36111 -0.97037 228 230 221
0.11936 0.36627 -0.89368 102 94 79
0.11884 0.36575 -0.89385 103 96 77
0.11934 0.36574 -0.89365 102 95 75
0.12013 0.36621 -0.89387 104 101 84
0.12074 0.36618 -0.89384 112 111 92
0.00929 0.37238 -0.89531 150 138 121
0.00886 0.37196 -0.89545 155 142 134
0.00970 0.37249 -0.89383 141 130 112
0.01008 0.37205 -0.89365 121 110 99
0.10454 0.35985 -0.96990 221 226 215
0.10384 0.35915 -0.97013 223 226 216
0.10526 0.35982 -0.96975 217 224 212
0.10592 0.35981 -0.96944 213 220 209
0.10662 0.35978 -0.96925 212 218 209
0.10753 0.35970 -0.96955 217 222 214
0.12010 0.36567 -0.89384 100 96 77
0.11957 0.36515 -0.89401 102 97 73
0.12007 0.36514 -0.89382 100 96 73
0.00927 0.37192 -0.89569 151 137 126
0.00965 0.37147 -0.89551 140 129 116
0.00968 0.37203 -0.89419 142 128 115
0.10620 0.35918 -0.96825 203 209 200
0.10730 0.35904 -0.96903 214 221 212
0.10794 0.35830 -0.96873 226 231 218
0.10789 0.35904 -0.96855 223 230 217
0.10859 0.35974 -0.96833 221 223 212
0.10856 0.35903 -0.96829 223 227 213
0.10919 0.35919 -0.96603 225 228 214
0.10855 0.35993 -0.96633 221 224 213
0.10852 0.35921 -0.96629 224 226 213
0.10922 0.35991 -0.96607 224 226 215
0.10924 0.35935 -0.96431 216 218 205
0.10979 0.35936 -0.96376 203 207 193
0.11027 0.35940 -0.96308 194 199 184
0.11051 0.35950 -0.96183 179 182 166
0.00885 0.37158 -0.89491 153 143 136
0.00847 0.37202 -0.89509 157 145 136
0.00845 0.37159 -0.89507 155 144 136
0.00843 0.37116 -0.89505 154 145 135
0.00883 0.37115 -0.89489 152 144 136
0.00925 0.37154 -0.89504 148 137 127
0.00963 0.37110 -0.89486 141 132 119
0.01006 0.37156 -0.89433 123 114 102
0.01046 0.37126 -0.89720 83 80 78
0.10592 0.35854 -0.96758 200 204 196
0.10701 0.35839 -0.96836 218 223 213
0.10975 0.35866 -0.96373 208 211 198
0.11046 0.35863 -0.96355 202 207 192
0.11092 0.35867 -0.96282 185 188 174
0.11135 0.35871 -0.96204 174 178 160
0.11205 0.35940 -0.96181 162 168 152
0.11202 0.35870 -0.96178 168 174 154
0.11198 0.35799 -0.96175 174 178 158
0.10695 0.35768 -0.96828 226 229 217
0.10705 0.35692 -0.96856 226 229 216
0.12251 0.36355 -0.89181 117 117 102
0.12303 0.36407 -0.89164 124 121 101
0.12301 0.36354 -0.89162 123 120 103
0.10216 0.37187 -0.82168 139 132 116
0.10246 0.37153 -0.82154 137 130 120
0.12258 0.36300 -0.89192 110 110 98
0.10250 0.35574 -0.96894 204 206 188
0.12138 0.36262 -0.89111 95 93 79
0.12085 0.36210 -0.89128 98 94 74
0.12135 0.36209 -0.89109 94 92 75
0.12225 0.36253 -0.89146 103 100 88
0.10145 0.35517 -0.96826 191 193 181
0.10209 0.35443 -0.96797 174 176 170
0.12205 0.36203 -0.89118 95 93 80
0.12152 0.36151 -0.89135 97 92 74
0.12203 0.36150 -0.89115 94 90 73
0.00952 0.36867 -0.89739 148 140 126
0.00913 0.36911 -0.89757 152 139 131
0.00912 0.36868 -0.89755 154 142 131
0.00910 0.36824 -0.89753 155 143 126
0.00993 0.36863 -0.89748 138 134 113
0.12262 0.36146 -0.89109 96 93 78
0.12209 0.36094 -0.89126 95 90 72
0.00951 0.36825 -0.89722 150 142 124
0.00908 0.36782 -0.89736 155 143 125
0.00991 0.36822 -0.89721 141 137 116
0.01032 0.36817 -0.89736 120 116 96
0.01072 0.36773 -0.89718 90 85 76
0.12251 0.36095 -0.89095 91 90 71
0.12199 0.36043 -0.89112 98 90 73
0.12249 0.36041 -0.89093 93 88 71
0.12264 0.36102 -0.89022 94 94 76
0.00949 0.36787 -0.89670 151 140 122
0.00906 0.36745 -0.89684 154 143 126
0.00947 0.36743 -0.89668 150 139 120
0.00990 0.36785 -0.89662 145 136 116
0.01029 0.36740 -0.89644 130 124 103
0.09026 0.35425 -0.96448 182 185 170
0.08964 0.35496 -0.96476 198 201 184
0.08961 0.35427 -0.96473 181 185 171
0.09029 0.35494 -0.96451 201 204 188
0.09094 0.35492 -0.96426 201 203 190
0.09091 0.35423 -0.96423 183 186 171
0.12233 0.36056 -0.88979 90 88 72
0.12181 0.36004 -0.88996 97 90 75
0.12231 0.36003 -0.88977 92 87 71
0.12275 0.36056 -0.88948 96 94 75
0.12306 0.36070 -0.88814 119 115 95
0.12315 0.36078 -0.88737 125 120 102
0.12366 0.36129 -0.88720 126 121 107
0.12364 0.36076 -0.88718 126 120 106
0.12361 0.36024 -0.88716 124 120 101
0.01070 0.36717 -0.89814 94 92 81
0.01068 0.36673 -0.89812 99 98 84
0.08654 0.35062 -0.99160 125 125 117
0.08587 0.35140 -0.99191 123 123 113
0.08583 0.35064 -0.99187 122 124 114
0.08658 0.35138 -0.99163 127 127 118
0.08729 0.35136 -0.99136 129 130 118
0.08726 0.35060 -0.99132 128 129 119
0.09043 0.35214 -0.97636 152 159 145
0.08978 0.35288 -0.97666 150 153 135
0.08975 0.35215 -0.97662 149 153 138
0.09046 0.35286 -0.97640 152 155 138
0.09114 0.35284 -0.97613 161 165 149
0.09039 0.35243 -0.97391 160 168 151
0.09110 0.35313 -0.97368 174 177 163
0.09103 0.35169 -0.97361 167 171 156
0.09049 0.35319 -0.96740 167 173 159
0.09045 0.35249 -0.96737 164 169 155
0.09111 0.35247 -0.96712 165 169 159
0.09051 0.35344 -0.96529 165 170 159
0.09113 0.35272 -0.96501 173 174 170
0.12230 0.36014 -0.88886 92 88 71
0.12178 0.35962 -0.88902 95 88 72
0.12228 0.35961 -0.88883 93 87 73
0.08606 0.34908 -0.99838 118 120 108
0.08682 0.34983 -0.99813 121 124 111
0.08611 0.34939 -0.99571 119 121 113
0.08608 0.34974 -0.99282 119 120 109
0.08621 0.35001 -0.99052 122 124 110
0.08627 0.35031 -0.98802 126 128 114
0.08700 0.35104 -0.98779 129 129 123
0.08697 0.35029 -0.98775 127 129 118
0.09051 0.35136 -0.97668 154 161 147
0.09026 0.35176 -0.97356 164 168 153
0.08569 0.34847 -0.99717 112 110 101
0.08575 0.34913 -0.99174 115 116 108
0.08642 0.34835 -0.99143 116 118 104
0.08594 0.34937 -0.98967 119 121 104
0.08661 0.34860 -0.98936 120 122 107
0.08603 0.34966 -0.98732 122 125 106
0.08670 0.34889 -0.98701 123 125 110
0.08609 0.34995 -0.98487 126 129 111
0.08682 0.35068 -0.98464 129 131 121
0.08676 0.34919 -0.98457 126 129 112
0.09030 0.35072 -0.97610 158 163 151
0.09011 0.35109 -0.97319 163 166 155
0.09003 0.35141 -0.97065 164 167 157
0.09017 0.35162 -0.96882 164 167 157
0.09083 0.35161 -0.96857 163 167 154
0.09080 0.35090 -0.96854 160 162 151
0.08530 0.34824 -0.99303 111 111 100
0.08598 0.34746 -0.99272 112 112 96
0.08548 0.34849 -0.99091 113 115 103
0.08616 0.34771 -0.99060 115 116 100
0.09011 0.35036 -0.97324 159 161 149
0.09075 0.34963 -0.97295 150 152 141
0.08995 0.35072 -0.97047 156 158 146
0.09006 0.35096 -0.96855 157 159 148
0.09069 0.35023 -0.96827 152 155 145
0.12256 0.35913 -0.88399 121 118 109
0.12307 0.35963 -0.88383 125 118 104
0.12305 0.35912 -0.88380 125 119 108
0.08989 0.34944 -0.97496 155 158 145
0.09053 0.34870 -0.97466 152 153 140
0.08994 0.34971 -0.97278 152 155 142
0.09058 0.34898 -0.97249 151 152 140
0.12200 0.35875 -0.88322 116 113 97
0.12204 0.35885 -0.88244 122 117 100
0.12254 0.35935 -0.88227 127 117 102
0.12252 0.35884 -0.88225 124 117 100
0.12250 0.35832 -0.88223 123 118 101
0.12199 0.35801 -0.88493 95 89 75
0.12148 0.35750 -0.88510 100 89 77
0.12197 0.35749 -0.88491 97 88 74
0.03595 0.35297 -0.96007 47 51 77
0.03534 0.35236 -0.96027 37 48 76
0.03651 0.35232 -0.95981 57 65 85
0.03665 0.35281 -0.96078 61 62 80
0.03721 0.35217 -0.96053 62 67 80
0.03727 0.35276 -0.96082 68 67 75
0.03784 0.35211 -0.96056 48 53 66
0.03606 0.35215 -0.96129 43 54 80
0.03544 0.35154 -0.96149 37 47 75
0.03663 0.35151 -0.96103 57 62 82
0.10656 0.36489 -0.82795 174 160 149
0.10624 0.36526 -0.82809 176 165 150
0.10623 0.36490 -0.82808 175 163 147
0.10621 0.36455 -0.82806 174 161 144
0.10654 0.36454 -0.82793 173 159 146
0.10691 0.36524 -0.82784 166 152 142
0.10704 0.36485 -0.82797 165 149 142
0.10737 0.36484 -0.82784 138 124 120
0.01048 0.36174 -0.90196 141 128 120
0.01091 0.36156 -0.90293 115 107 103
0.01136 0.36201 -0.90279 96 92 99
0.01132 0.36110 -0.90274 71 70 67
0.04081 0.35068 -0.95994 92 88 84
0.04144 0.35129 -0.95974 104 94 80
0.04141 0.35066 -0.95971 103 93 78
0.04138 0.35003 -0.95968 100 94 78
0.10694 0.36452 -0.82787 162 148 139
0.10781 0.36438 -0.82829 136 125 117
0.10816 0.36473 -0.82817 137 124 119
0.10815 0.36437 -0.82816 136 125 114
0.10813 0.36402 -0.82814 136 126 112
0.01004 0.36139 -0.90155 148 133 127
0.00964 0.36185 -0.90173 149 136 127
0.00962 0.36140 -0.90171 150 136 128
0.00960 0.36095 -0.90169 150 136 130
0.01046 0.36130 -0.90185 140 127 117
0.01089 0.36099 -0.90374 115 106 96
0.04028 0.34996 -0.96078 66 70 84
0.03968 0.34997 -0.96101 44 52 76
0.03965 0.34934 -0.96099 43 52 76
0.04025 0.34932 -0.96075 64 70 89
0.04080 0.35002 -0.96003 88 87 84
0.04137 0.34938 -0.95977 101 93 83
0.07856 0.34288 -0.98635 103 103 88
0.07790 0.34364 -0.98665 98 100 86
0.07787 0.34290 -0.98661 101 103 85
0.07783 0.34216 -0.98658 104 105 90
0.07853 0.34214 -0.98631 105 103 90
0.07929 0.34360 -0.98611 106 105 91
0.07993 0.34243 -0.98859 108 109 95
0.08066 0.34315 -0.98835 109 108 94
0.08063 0.34241 -0.98832 109 110 99
0.12083 0.35555 -0.87755 98 91 82
0.12034 0.35506 -0.87771 92 85 76
0.12093 0.35564 -0.87688 108 102 95
0.12124 0.35567 -0.87650 116 109 98
0.12173 0.35615 -0.87634 117 111 98
0.12171 0.35566 -0.87632 117 110 96
0.12168 0.35516 -0.87629 116 106 94
0.10701 0.36414 -0.82794 158 146 134
0.10666 0.36380 -0.82805 170 157 141
0.10699 0.36379 -0.82792 154 142 131
0.10733 0.36378 -0.82780 136 124 116
0.10823 0.36392 -0.82871 136 126 116
0.10855 0.36356 -0.82856 136 126 114
0.01002 0.36099 -0.90121 148 135 127
0.00958 0.36055 -0.90135 149 137 129
0.01000 0.36054 -0.90119 147 136 125
0.01042 0.36053 -0.90103 141 133 117
0.01044 0.36089 -0.90158 139 129 116
0.01087 0.36087 -0.90148 116 110 96
0.01127 0.36041 -0.90130 78 75 74
0.12096 0.35501 -0.87773 93 86 79
0.12047 0.35452 -0.87789 93 84 73
0.12093 0.35451 -0.87771 93 85 74
0.12381 0.35315 -0.87831 107 100 83
0.12417 0.35330 -0.87718 118 111 97
0.12466 0.35378 -0.87702 119 114 100
0.12464 0.35328 -0.87700 120 110 97
0.12461 0.35278 -0.87698 120 109 93
0.12407 0.35282 -0.87706 116 106 91
0.03936 0.34638 -0.95965 40 47 69
0.03880 0.34703 -0.95991 35 45 71
0.03877 0.34640 -0.95988 37 44 68
0.03874 0.34577 -0.95985 37 44 71
0.03989 0.34645 -0.95892 56 62 78
0.04045 0.34581 -0.95866 78 75 83
0.12316 0.35232 -0.87748 94 86 72
0.12267 0.35184 -0.87764 95 84 71
0.12314 0.35182 -0.87745 93 86 75
0.12353 0.35234 -0.87716 102 96 80
0.12400 0.35233 -0.87698 111 104 86
0.12442 0.35233 -0.87673 117 110 92
0.12491 0.35282 -0.87657 121 109 95
0.12489 0.35232 -0.87655 119 109 97
0.03928 0.34582 -0.95923 42 47 69
0.03866 0.34521 -0.95943 37 45 68
0.03925 0.34519 -0.95920 39 47 68
0.03982 0.34588 -0.95858 56 58 75
0.04038 0.34524 -0.95832 76 74 83
0.12349 0.35185 -0.87712 95 89 76
0.12300 0.35136 -0.87728 96 85 72
0.12400 0.35182 -0.87699 104 99 84
0.12446 0.35182 -0.87678 113 105 92
0.12487 0.35182 -0.87653 117 106 97
0.12537 0.35231 -0.87638 118 107 97
0.12534 0.35181 -0.87635 118 105 100
0.12338 0.35138 -0.87698 94 86 74
0.12289 0.35089 -0.87714 97 85 69
0.12336 0.35088 -0.87696 95 85 71
0.12393 0.35134 -0.87689 99 92 82
0.12445 0.35131 -0.87678 106 95 89
0.12490 0.35130 -0.87658 112 100 95
0.12538 0.35129 -0.87640 116 103 100
0.12587 0.35178 -0.87624 122 110 103
0.12584 0.35128 -0.87622 119 108 102
0.12582 0.35078 -0.87620 117 107 95
0.12588 0.34865 -0.87399 108 102 87
0.12637 0.34913 -0.87383 116 109 99
0.12627 0.34866 -0.87371 116 106 93
0.12676 0.34914 -0.87355 116 110 98
0.12673 0.34865 -0.87353 117 108 94
0.12637 0.34798 -0.87461 102 95 81
0.12696 0.34793 -0.87458 111 101 86
0.12607 0.34743 -0.87500 91 80 72
0.12558 0.34695 -0.87516 93 80 70
0.12605 0.34693 -0.87498 93 79 74
0.12670 0.34736 -0.87502 98 87 79
0.12732 0.34730 -0.87503 105 95 86
0.12676 0.34683 -0.87511 94 83 77
0.12627 0.34635 -0.87527 94 80 68
0.12674 0.34634 -0.87508 93 82 70
0.12724 0.34682 -0.87493 97 90 80
0.03995 0.33687 -0.96213 41 45 71
0.03938 0.33752 -0.96239 35 42 69
0.03935 0.33688 -0.96236 36 42 69
0.03932 0.33624 -0.96233 36 41 61
0.03998 0.33751 -0.96216 39 46 70
0.04058 0.33749 -0.96193 56 57 72
0.04062 0.33674 -0.96241 57 57 74
0.04125 0.33736 -0.96221 80 74 72
0.04119 0.33608 -0.96215 77 74 78
0.03985 0.33635 -0.96156 40 44 64
0.03923 0.33572 -0.96176 33 40 61
0.04058 0.33612 -0.96230 54 56 69
0.04115 0.33546 -0.96204 74 73 79
0.03980 0.33574 -0.96137 38 45 65
0.03918 0.33512 -0.96157 34 42 66
0.03978 0.33511 -0.96134 38 46 70
0.04037 0.33509 -0.96111 53 54 73
0.04053 0.33551 -0.96213 53 55 73
0.04110 0.33485 -0.96187 73 70 78
0.09786 0.35682 -0.82487 165 149 136
0.09816 0.35647 -0.82474 167 154 145
0.02167 0.33794 -0.93589 57 55 67
0.02115 0.33795 -0.93609 59 58 74
0.02169 0.33849 -0.93591 65 62 66
0.02221 0.33848 -0.93571 52 51 52
0.02219 0.33789 -0.93585 44 43 53
0.02274 0.33843 -0.93568 39 44 48
0.02271 0.33787 -0.93565 37 39 50
0.02269 0.33732 -0.93563 37 36 56
0.01143 0.34616 -0.89780 143 135 116
0.01101 0.34617 -0.89796 147 139 121
0.01141 0.34572 -0.89778 146 133 117
0.01184 0.34616 -0.89761 130 122 104
0.02091 0.33639 -0.93338 48 47 61
0.02040 0.33640 -0.93358 52 54 68
0.02142 0.33638 -0.93318 37 37 52
0.01182 0.34577 -0.89734 134 121 109
0.02031 0.33618 -0.93228 54 53 66
0.01983 0.33674 -0.93250 48 53 69
0.01980 0.33619 -0.93247 48 52 67
0.01978 0.33565 -0.93245 49 52 66
0.02084 0.33606 -0.93250 46 45 58
0.02138 0.33593 -0.93276 37 38 50
0.02191 0.33646 -0.93258 34 37 50
0.02189 0.33592 -0.93256 34 38 49
0.02187 0.33537 -0.93253 34 38 47
0.01139 0.34523 -0.89793 146 134 117
0.01097 0.34524 -0.89809 148 137 121
0.01095 0.34480 -0.89807 149 137 122
0.01181 0.34521 -0.89779 134 124 107
0.01223 0.34497 -0.89857 102 97 90
0.02034 0.33536 -0.93336 52 53 61
0.01981 0.33482 -0.93353 48 51 66
0.01136 0.34513 -0.89655 145 134 118
0.01093 0.34470 -0.89669 149 136 125
0.01134 0.34469 -0.89653 143 133 121
0.01178 0.34507 -0.89658 134 126 107
0.01220 0.34478 -0.89752 104 101 91
0.01260 0.34433 -0.89734 66 67 68
0.02029 0.33497 -0.93270 51 52 61
0.01975 0.33444 -0.93287 49 52 68
0.02026 0.33443 -0.93267 53 55 68
0.01176 0.34455 -0.89688 134 126 110
0.01132 0.34412 -0.89702 142 134 121
0.01174 0.34411 -0.89686 134 129 112
0.01215 0.34410 -0.89670 113 111 94
0.01217 0.34453 -0.89676 108 107 93
0.01256 0.34414 -0.89631 71 72 66
0.01254 0.34370 -0.89629 79 77 68
0.01296 0.34369 -0.89613 50 50 61
0.01172 0.34374 -0.89654 138 129 110
0.01130 0.34375 -0.89670 144 134 119
0.01213 0.34378 -0.89619 120 112 93
0.01252 0.34333 -0.89601 86 79 71
0.02021 0.33336 -0.93256 53 54 64
0.01972 0.33392 -0.93278 51 54 70
0.01970 0.33337 -0.93276 53 55 69
0.01967 0.33283 -0.93273 52 54 67
0.02132 0.33288 -0.93385 33 37 51
0.02181 0.33232 -0.93362 29 33 50
0.01129 0.34320 -0.89713 145 134 119
0.01089 0.34365 -0.89731 149 134 127
0.01087 0.34321 -0.89729 148 135 124
0.01085 0.34277 -0.89727 147 137 121
0.01127 0.34276 -0.89711 145 134 117
0.01170 0.34324 -0.89677 139 129 107
0.01211 0.34323 -0.89661 122 113 91
0.01169 0.34252 -0.89779 141 130 108
0.01125 0.34209 -0.89793 147 133 119
0.01210 0.34267 -0.89701 125 117 95
0.01249 0.34222 -0.89683 93 87 79
0.01250 0.34285 -0.89613 90 84 74
0.01294 0.34328 -0.89599 52 50 60
0.01292 0.34284 -0.89597 53 51 60
0.01290 0.34240 -0.89595 53 53 61
0.01167 0.34198 -0.89813 143 128 114
0.01123 0.34155 -0.89827 149 133 119
0.01208 0.34205 -0.89765 128 117 100
0.01248 0.34160 -0.89747 97 89 83
0.01165 0.34161 -0.89785 145 130 114
0.01121 0.34117 -0.89799 149 135 116
0.01206 0.34165 -0.89748 132 119 105
0.01246 0.34120 -0.89730 101 92 88
0.01163 0.34116 -0.89785 143 131 112
0.01119 0.34072 -0.89799 148 135 127
0.01202 0.34070 -0.89767 132 120 110
0.01205 0.34110 -0.89786 131 120 106
0.01244 0.34064 -0.89768 103 95 89
0.01160 0.34088 -0.89721 143 130 121
0.01117 0.34045 -0.89735 147 133 127
0.01200 0.34043 -0.89702 133 121 107
0.01288 0.34026 -0.89885 62 60 65
0.01244 0.33983 -0.89899 106 100 88
0.01328 0.33980 -0.89866 44 48 65
0.01330 0.34025 -0.89868 46 46 62
0.01374 0.34069 -0.89854 45 46 63
0.01372 0.34024 -0.89852 44 44 64
0.01370 0.33979 -0.89850 40 46 70
0.01231 0.33821 -0.89675 124 116 97
0.01188 0.33778 -0.89689 140 130 110
0.01229 0.33777 -0.89673 126 118 97
0.01274 0.33789 -0.89763 93 88 75
0.01314 0.33744 -0.89745 60 61 59
0.01317 0.33772 -0.89802 57 59 56
0.01357 0.33726 -0.89784 44 47 62
0.01269 0.33818 -0.89515 97 92 77
0.01267 0.33774 -0.89513 101 97 80
0.01308 0.33773 -0.89497 64 64 65
0.01177 0.33718 -0.89299 142 129 112
0.01138 0.33762 -0.89317 145 131 118
0.01136 0.33719 -0.89315 144 132 119
0.01134 0.33675 -0.89313 141 130 118
0.01219 0.33760 -0.89285 132 118 106
0.01217 0.33716 -0.89283 134 120 105
0.01257 0.33733 -0.89209 112 102 94
0.01255 0.33690 -0.89207 118 107 94
0.01299 0.33775 -0.89195 71 70 81
0.01298 0.33721 -0.89229 77 72 79
0.01340 0.33763 -0.89215 46 50 73
0.01337 0.33677 -0.89211 50 52 68
0.01216 0.33648 -0.89363 135 121 106
0.01173 0.33606 -0.89376 138 126 111
0.01214 0.33605 -0.89361 134 122 110
0.01298 0.33648 -0.89324 83 80 77
0.01254 0.33624 -0.89278 121 110 104
0.01211 0.33582 -0.89291 134 125 113
0.01252 0.33581 -0.89276 121 111 102
0.01295 0.33623 -0.89265 87 85 88
0.01333 0.33578 -0.89247 54 54 67
0.01293 0.33576 -0.89272 88 83 82
0.01250 0.33552 -0.89228 123 115 98
0.01209 0.33553 -0.89244 136 126 106
0.01248 0.33509 -0.89226 125 115 100
0.01291 0.33533 -0.89269 91 87 80
0.01207 0.33519 -0.89213 135 125 110
0.01168 0.33564 -0.89231 140 127 112
0.01166 0.33521 -0.89229 138 128 118
0.01205 0.33476 -0.89211 137 122 106
0.01290 0.33474 -0.89316 96 91 85
0.01329 0.33430 -0.89298 66 66 72
0.01247 0.33435 -0.89319 128 115 94
0.01290 0.33377 -0.89482 102 96 83
0.01375 0.32544 -0.90548 73 69 71
0.01329 0.32499 -0.90563 119 109 95
0.01373 0.32497 -0.90546 80 76 68
0.01417 0.32496 -0.90529 49 49 57
0.01419 0.32536 -0.90552 48 47 60
0.01461 0.32488 -0.90532 42 43 64
