ply
format ascii 1.0
element face 0
property list uchar int vertex_indices
element vertex 1310
property float x
property float y
property float z
property uchar diffuse_red
property uchar diffuse_green
property uchar diffuse_blue
end_header
0.06964 0.39992 -0.78929 152 145 134
0.07022 0.40028 -0.78889 163 156 145
0.07003 0.40015 -0.78812 183 174 164
0.07018 0.40011 -0.78775 196 186 177
0.07053 0.39975 -0.78760 197 190 177
0.08304 0.40271 -0.79805 196 190 180
0.08266 0.40229 -0.79819 199 195 181
0.08595 0.40326 -0.80014 169 162 150
0.08635 0.40286 -0.79998 162 155 141
0.10416 0.42664 -0.95353 129 128 127
0.11846 0.42115 -0.90758 200 196 178
0.11915 0.42044 -0.90729 188 189 165
0.06987 0.39990 -0.78902 154 144 131
0.06953 0.39952 -0.78914 150 144 131
0.07017 0.39990 -0.78882 167 155 141
0.06992 0.39975 -0.78797 187 175 162
0.07025 0.39976 -0.78781 197 186 175
0.07061 0.39939 -0.78766 196 191 175
0.11919 0.42064 -0.90872 196 195 174
0.11988 0.41993 -0.90843 186 188 166
0.06976 0.39949 -0.78886 153 145 130
0.06941 0.39911 -0.78898 150 143 131
0.07013 0.39951 -0.78875 168 159 143
0.06994 0.39938 -0.78797 189 180 163
0.07031 0.39940 -0.78786 197 191 174
0.07066 0.39903 -0.78771 196 192 173
0.11947 0.41999 -0.90914 194 194 173
0.12016 0.41928 -0.90885 188 185 166
0.06954 0.39906 -0.78858 153 146 134
0.06920 0.39868 -0.78871 151 143 129
0.06965 0.39901 -0.78816 169 163 149
0.06955 0.39891 -0.78749 188 183 166
0.06987 0.39892 -0.78733 196 193 174
0.07022 0.39855 -0.78718 196 192 173
0.11980 0.41936 -0.90964 194 190 170
0.12050 0.41864 -0.90935 188 184 166
0.06931 0.39863 -0.78829 154 148 134
0.06896 0.39825 -0.78841 150 143 132
0.06943 0.39859 -0.78788 169 165 151
0.06922 0.39846 -0.78709 187 184 166
0.06959 0.39848 -0.78698 195 191 171
0.06994 0.39812 -0.78684 196 192 175
0.06865 0.39810 -0.78748 154 150 139
0.06831 0.39772 -0.78760 146 143 136
0.06879 0.39806 -0.78710 170 168 155
0.06875 0.39798 -0.78652 187 185 168
0.06910 0.39762 -0.78637 196 192 174
0.06903 0.39797 -0.78631 196 191 171
0.06938 0.39761 -0.78616 197 191 175
-0.00276 0.40738 -0.90217 155 144 126
-0.00331 0.40677 -0.90237 159 146 132
-0.00224 0.40733 -0.90150 148 139 121
-0.00168 0.40675 -0.90127 142 134 117
0.06882 0.39777 -0.78767 153 150 143
0.06848 0.39739 -0.78780 146 143 135
-0.00221 0.39773 -0.90011 145 137 117
-0.00277 0.39831 -0.90034 150 138 124
-0.00276 0.39772 -0.90032 149 139 121
-0.00221 0.39832 -0.90012 145 136 122
-0.00166 0.39834 -0.89991 139 131 118
-0.00163 0.39778 -0.90019 140 131 111
-0.00106 0.39720 -0.89995 139 129 106
-0.00222 0.39712 -0.89986 145 136 113
-0.00156 0.39725 -0.90080 140 131 105
-0.00100 0.39667 -0.90056 137 130 112
0.08750 0.40361 -0.91979 145 138 115
0.08680 0.40432 -0.92008 145 141 117
0.08682 0.40286 -0.92004 147 145 124
0.09476 0.39465 -0.81077 163 154 145
0.09519 0.39420 -0.81059 158 151 141
0.09654 0.39400 -0.81273 160 153 142
0.09698 0.39355 -0.81255 157 149 136
0.00979 0.39703 -0.92002 162 155 135
0.00918 0.39636 -0.92024 167 158 138
0.00982 0.39639 -0.92019 163 156 133
0.01061 0.39651 -0.92123 152 147 126
-0.00703 0.39243 -0.88755 140 132 120
-0.00754 0.39186 -0.88774 134 122 107
0.00922 0.39573 -0.92047 166 159 135
0.00860 0.39637 -0.92073 170 161 142
0.00861 0.39571 -0.92071 169 162 143
0.00862 0.39506 -0.92069 169 162 139
0.00923 0.39507 -0.92045 166 160 137
0.00982 0.39573 -0.92007 162 156 129
0.01055 0.39582 -0.92076 153 147 123
-0.00709 0.39180 -0.88658 139 130 117
-0.00759 0.39124 -0.88677 135 122 107
0.00986 0.39510 -0.92031 161 157 134
0.00926 0.39443 -0.92052 166 158 138
0.00987 0.39444 -0.92029 162 156 139
0.01056 0.39516 -0.92068 153 148 128
-0.00719 0.39114 -0.88507 140 129 115
-0.00769 0.39058 -0.88525 138 125 113
-0.00707 0.39070 -0.88660 141 128 115
-0.00758 0.39014 -0.88679 139 127 114
-0.00706 0.39015 -0.88654 140 127 114
-0.00757 0.38959 -0.88673 137 128 115
-0.00705 0.38960 -0.88653 137 127 115
-0.00651 0.38964 -0.88673 146 134 124
-0.00702 0.38907 -0.88691 134 127 114
-0.00598 0.38910 -0.88651 157 145 127
-0.00658 0.38903 -0.88570 143 132 120
-0.00708 0.38846 -0.88588 133 126 112
-0.00650 0.38853 -0.88663 140 132 117
-0.00652 0.38796 -0.88625 140 131 116
0.00124 0.38926 -0.90407 143 132 116
0.00192 0.38934 -0.90494 152 143 126
0.00270 0.38947 -0.90671 157 150 132
0.00327 0.39010 -0.90651 157 151 127
0.00328 0.38948 -0.90649 157 152 132
0.00329 0.38887 -0.90647 157 151 135
0.01036 0.39071 -0.92346 162 153 135
0.00973 0.39135 -0.92372 164 157 136
0.00974 0.39069 -0.92370 164 157 136
0.00975 0.39003 -0.92368 162 157 139
0.01037 0.39004 -0.92344 161 154 137
0.01108 0.39077 -0.92393 159 150 130
-0.00653 0.38739 -0.88592 141 129 117
-0.00599 0.38743 -0.88607 155 143 130
-0.00547 0.38689 -0.88585 161 150 131
0.01098 0.39005 -0.92310 159 150 131
0.01037 0.38937 -0.92332 159 156 136
-0.00652 0.38685 -0.88597 142 131 118
-0.00598 0.38687 -0.88603 155 143 130
-0.00546 0.38634 -0.88581 159 151 132
0.01079 0.38931 -0.92157 156 153 132
0.01018 0.38863 -0.92179 160 156 131
0.01079 0.38865 -0.92155 157 154 128
0.01156 0.38939 -0.92244 149 145 126
0.01237 0.38948 -0.92356 121 119 112
0.03768 0.39270 -0.96760 131 142 144
-0.00647 0.38633 -0.88653 141 132 122
0.01126 0.38861 -0.92018 151 147 124
0.01225 0.38876 -0.92265 121 119 111
-0.00642 0.38580 -0.88701 139 133 119
-0.00693 0.38523 -0.88720 134 126 111
-0.00584 0.38585 -0.88765 151 145 129
-0.00531 0.38531 -0.88743 159 149 129
-0.00477 0.38589 -0.88756 156 145 126
-0.00422 0.38592 -0.88777 149 138 118
0.01012 0.38775 -0.91646 159 154 130
0.00951 0.38773 -0.91670 161 156 133
0.00952 0.38709 -0.91668 162 156 137
0.01077 0.38778 -0.91660 152 147 127
0.01216 0.38807 -0.92190 121 119 111
-0.00638 0.38526 -0.88746 138 130 115
-0.00689 0.38470 -0.88764 132 125 114
-0.00582 0.38530 -0.88774 151 142 125
-0.00530 0.38476 -0.88752 157 149 129
-0.00478 0.38533 -0.88740 156 146 125
-0.00421 0.38537 -0.88774 150 141 121
0.00996 0.38705 -0.91522 159 154 134
0.00937 0.38639 -0.91543 163 157 136
0.00997 0.38640 -0.91520 160 155 135
0.01052 0.38705 -0.91468 152 149 130
-0.00640 0.38469 -0.88702 135 128 117
-0.00691 0.38413 -0.88721 133 124 113
-0.00585 0.38473 -0.88730 149 141 127
-0.00532 0.38419 -0.88708 158 149 129
-0.00474 0.38479 -0.88772 156 148 124
-0.00473 0.38423 -0.88770 158 149 125
-0.00416 0.38483 -0.88817 151 143 120
-0.00363 0.38484 -0.88805 145 139 117
0.01038 0.38636 -0.91356 154 152 131
0.00979 0.38571 -0.91377 161 154 139
0.01125 0.38646 -0.91531 123 123 110
-0.00642 0.38413 -0.88671 135 127 115
-0.00693 0.38356 -0.88690 134 125 110
-0.00586 0.38416 -0.88699 148 139 125
-0.00425 0.38423 -0.88712 153 145 120
-0.00476 0.38366 -0.88730 160 148 129
-0.00369 0.38426 -0.88733 146 139 116
-0.00316 0.38428 -0.88722 143 133 113
-0.00264 0.38485 -0.88703 141 130 111
-0.00264 0.38429 -0.88701 141 129 110
-0.00263 0.38373 -0.88700 141 129 109
0.01036 0.38572 -0.91338 156 150 133
0.00977 0.38506 -0.91359 161 155 138
0.01103 0.38575 -0.91363 129 128 113
0.01163 0.38577 -0.91339 90 95 92
-0.00642 0.38357 -0.88662 134 127 112
-0.00693 0.38301 -0.88681 133 124 110
-0.00587 0.38360 -0.88679 147 138 122
-0.00539 0.38360 -0.88617 160 148 131
-0.00486 0.38306 -0.88595 161 149 132
0.01040 0.38508 -0.91353 156 150 132
0.01116 0.38515 -0.91451 131 128 113
0.01152 0.38510 -0.91255 90 93 90
0.07883 0.38414 -0.80130 136 130 118
0.07843 0.38455 -0.80146 138 131 121
0.07844 0.38413 -0.80145 137 129 122
0.07844 0.38372 -0.80144 136 130 117
0.07883 0.38373 -0.80128 136 128 112
-0.00645 0.38301 -0.88611 132 124 109
-0.00695 0.38244 -0.88629 133 122 115
-0.00588 0.38304 -0.88652 145 135 120
-0.00540 0.38304 -0.88592 159 147 132
-0.00487 0.38250 -0.88570 163 151 134
0.00993 0.38446 -0.91465 161 155 134
0.00932 0.38509 -0.91490 161 157 139
0.00933 0.38445 -0.91488 162 157 136
0.00934 0.38380 -0.91486 163 156 138
0.01051 0.38447 -0.91425 156 150 129
0.01126 0.38452 -0.91509 131 129 112
0.01146 0.38444 -0.91208 87 88 87
-0.00651 0.38243 -0.88516 129 120 112
-0.00701 0.38187 -0.88534 133 124 117
-0.00650 0.38188 -0.88514 128 120 114
-0.00593 0.38247 -0.88577 142 131 121
-0.00542 0.38248 -0.88555 159 148 134
-0.00489 0.38194 -0.88534 162 153 134
0.01057 0.38384 -0.91463 156 149 130
0.01125 0.38388 -0.91498 132 131 117
0.01138 0.38379 -0.91140 86 91 96
0.01178 0.38376 -0.90988 68 78 103
-0.00532 0.38196 -0.88662 158 149 134
-0.00480 0.38142 -0.88640 163 155 131
0.01138 0.38326 -0.91576 134 133 123
0.01151 0.38318 -0.91225 90 97 105
0.01187 0.38315 -0.91044 75 86 111
0.01248 0.38253 -0.91019 91 102 126
0.07758 0.38281 -0.79973 134 129 114
0.07719 0.38321 -0.79989 135 130 116
0.07719 0.38280 -0.79988 133 128 115
0.07720 0.38239 -0.79986 134 130 117
0.07849 0.38286 -0.80020 142 139 125
-0.00530 0.38141 -0.88683 157 149 130
-0.00477 0.38087 -0.88661 164 153 130
0.01124 0.38259 -0.91474 137 137 125
0.01133 0.38251 -0.91094 94 101 104
0.01174 0.38249 -0.90943 79 90 108
-0.00532 0.38085 -0.88644 156 146 128
-0.00479 0.38031 -0.88622 165 151 130
0.01124 0.38194 -0.91465 139 139 124
0.01122 0.38186 -0.91008 96 102 99
0.01164 0.38184 -0.90866 78 86 99
0.01124 0.38123 -0.91014 98 101 101
0.01166 0.38122 -0.90874 73 79 92
-0.00692 0.37969 -0.88613 138 128 111
-0.00640 0.37915 -0.88591 130 124 106
0.01116 0.38058 -0.90948 98 100 97
0.08691 0.38234 -0.86354 138 137 117
0.08771 0.38237 -0.86376 147 144 127
0.08826 0.38298 -0.86356 151 146 129
0.08826 0.38239 -0.86355 150 145 129
0.01102 0.37994 -0.90847 97 99 92
0.04278 0.38166 -0.97481 91 89 76
0.04354 0.38251 -0.97454 84 79 69
0.04355 0.38168 -0.97451 91 86 70
0.04357 0.38085 -0.97449 94 87 67
0.08758 0.38179 -0.86465 129 126 106
0.08839 0.38182 -0.86486 143 139 120
0.08916 0.38184 -0.86501 148 143 124
0.08971 0.38245 -0.86481 151 146 127
0.08972 0.38186 -0.86480 150 145 124
0.08972 0.38127 -0.86478 147 144 123
-0.00588 0.37861 -0.88567 130 124 109
-0.00638 0.37805 -0.88585 128 123 103
0.00141 0.37890 -0.89330 144 139 120
0.01064 0.37928 -0.90571 97 99 92
0.04287 0.38084 -0.97517 95 91 72
0.04366 0.38003 -0.97485 95 87 67
0.08807 0.38122 -0.86545 121 116 94
0.08753 0.38062 -0.86564 117 112 90
-0.00578 0.37807 -0.88679 130 125 106
-0.00629 0.37751 -0.88697 130 123 100
-0.00577 0.37752 -0.88677 133 127 103
0.00144 0.37832 -0.89346 145 138 119
0.00214 0.37835 -0.89461 150 144 126
0.00267 0.37894 -0.89442 152 148 125
0.00268 0.37836 -0.89440 153 147 130
0.00269 0.37778 -0.89438 155 146 131
0.01092 0.37868 -0.90758 101 103 97
0.01034 0.37804 -0.90779 145 143 124
0.04231 0.38000 -0.97639 109 108 91
0.04154 0.37914 -0.97666 130 132 117
0.04317 0.38002 -0.97644 96 92 71
0.07099 0.38081 -0.97564 126 116 95
0.07017 0.38165 -0.97598 121 115 92
0.07020 0.37993 -0.97593 119 111 91
0.07098 0.38167 -0.97567 126 118 95
0.07179 0.38169 -0.97536 129 121 95
0.07181 0.37997 -0.97530 127 124 100
0.08882 0.38066 -0.86668 117 112 92
0.08827 0.38005 -0.86687 119 113 94
0.08883 0.38006 -0.86666 118 112 93
0.00148 0.37775 -0.89376 145 137 118
0.00216 0.37777 -0.89475 150 144 126
0.00272 0.37720 -0.89452 156 146 131
0.01067 0.37804 -0.90579 105 108 100
0.01010 0.37741 -0.90600 145 144 125
0.04340 0.37920 -0.97742 95 94 77
0.04420 0.37838 -0.97709 97 92 77
0.04419 0.37922 -0.97712 95 89 73
0.04496 0.38008 -0.97684 96 86 67
0.04497 0.37924 -0.97681 95 88 69
0.10003 0.38066 -0.94966 144 145 124
0.09925 0.38147 -0.94999 143 145 127
0.09926 0.38064 -0.94996 146 144 125
0.10002 0.38149 -0.94969 140 143 124
0.10081 0.38068 -0.94936 143 144 122
0.09590 0.38007 -0.81267 150 140 126
0.09633 0.38054 -0.81252 149 142 125
0.09633 0.38008 -0.81250 149 139 128
0.09634 0.37962 -0.81249 149 138 126
0.00136 0.37716 -0.89251 143 134 121
0.01043 0.37741 -0.90404 105 107 97
0.01101 0.37681 -0.90379 59 66 69
0.04344 0.37836 -0.97753 96 95 80
0.04424 0.37754 -0.97720 99 91 74
0.09880 0.37981 -0.95502 147 149 125
0.09800 0.38063 -0.95535 145 148 122
0.09801 0.37979 -0.95532 147 149 125
0.09879 0.38065 -0.95504 144 147 122
0.09957 0.38067 -0.95474 145 145 124
0.09879 0.37981 -0.95292 150 148 126
0.09956 0.38066 -0.95265 146 144 125
0.09873 0.37981 -0.95073 151 147 126
0.09912 0.37982 -0.94958 153 148 128
0.10022 0.37985 -0.95003 151 151 130
0.10830 0.38007 -0.95356 140 141 121
0.10908 0.38093 -0.95328 137 139 117
0.10909 0.38009 -0.95325 141 141 120
0.00185 0.37660 -0.89183 151 143 130
0.00240 0.37604 -0.89160 155 146 128
0.00953 0.37678 -0.90187 144 146 126
0.00896 0.37676 -0.90209 153 152 134
0.00896 0.37616 -0.90207 154 151 136
0.01045 0.37680 -0.90409 105 108 96
0.04324 0.37752 -0.97651 97 94 78
0.04403 0.37670 -0.97618 99 90 74
0.09861 0.37895 -0.96756 151 153 131
0.09779 0.37980 -0.96791 147 151 123
0.09780 0.37893 -0.96788 148 150 126
0.09860 0.37982 -0.96759 147 151 125
0.09941 0.37984 -0.96727 148 150 129
0.09916 0.37897 -0.96661 154 155 135
0.09996 0.37985 -0.96632 149 149 130
0.09938 0.37898 -0.96491 153 153 134
0.10017 0.37986 -0.96462 148 149 128
0.09918 0.37898 -0.95794 150 152 129
0.09889 0.37898 -0.95517 154 155 132
0.09968 0.37817 -0.95484 163 163 141
0.09888 0.37898 -0.95308 158 157 132
0.09967 0.37817 -0.95276 164 164 142
0.09908 0.37899 -0.95147 160 157 134
0.09986 0.37819 -0.95114 161 164 143
0.09949 0.37900 -0.95036 160 158 138
0.10027 0.37820 -0.95003 162 165 144
0.10055 0.37903 -0.95069 159 161 140
0.10133 0.37822 -0.95037 157 161 139
0.10854 0.37923 -0.95402 144 147 125
0.00932 0.37617 -0.90036 147 148 129
0.00877 0.37555 -0.90056 156 149 132
0.01089 0.37618 -0.90704 107 112 95
0.09881 0.37808 -0.97025 151 151 130
0.09892 0.37809 -0.96824 156 157 136
0.09951 0.37811 -0.96740 160 162 143
0.09971 0.37812 -0.96564 157 159 142
0.09938 0.37814 -0.95835 153 156 132
0.10018 0.37732 -0.95802 161 162 139
0.09941 0.37815 -0.95631 160 161 140
0.10021 0.37733 -0.95598 161 163 142
0.10862 0.37839 -0.95413 152 155 135
-0.00389 0.37537 -0.88339 159 148 131
-0.00344 0.37539 -0.88245 154 141 126
-0.00293 0.37486 -0.88224 152 139 122
-0.00296 0.37540 -0.88201 150 137 121
-0.00238 0.37541 -0.88252 148 136 115
0.00937 0.37557 -0.90061 151 147 128
0.00881 0.37495 -0.90081 156 147 130
0.01064 0.37557 -0.90528 115 115 99
0.01219 0.37556 -0.91159 68 70 70
0.01915 0.37573 -0.91135 95 101 105
0.01976 0.37510 -0.91110 97 102 109
0.09894 0.37720 -0.97050 156 157 136
0.09891 0.37722 -0.96816 160 162 142
0.09968 0.37724 -0.96774 165 167 149
0.09994 0.37726 -0.96611 164 167 150
0.10022 0.37735 -0.95393 158 160 140
0.09945 0.37649 -0.95420 157 161 140
0.10090 0.37737 -0.95340 156 158 138
0.10206 0.37739 -0.95393 156 160 137
0.10285 0.37658 -0.95360 150 154 128
0.10293 0.37741 -0.95382 153 157 135
0.10372 0.37660 -0.95349 151 154 133
-0.00535 0.37478 -0.88475 136 127 111
-0.00586 0.37422 -0.88494 129 120 109
-0.00488 0.37480 -0.88408 154 145 128
-0.00396 0.37483 -0.88247 159 148 131
-0.00354 0.37485 -0.88134 154 142 125
-0.00302 0.37433 -0.88112 151 142 124
-0.00242 0.37487 -0.88198 149 140 117
-0.00241 0.37433 -0.88196 149 141 121
-0.00186 0.37488 -0.88225 140 134 109
0.00928 0.37497 -0.89989 152 144 128
0.00872 0.37435 -0.90009 156 147 134
0.01061 0.37495 -0.90501 121 118 105
0.09960 0.37639 -0.96527 172 175 155
0.13888 0.37765 -0.92608 97 95 82
-0.00536 0.37423 -0.88456 138 126 112
-0.00587 0.37367 -0.88475 130 121 107
-0.00488 0.37425 -0.88400 154 142 126
-0.00448 0.37428 -0.88240 162 153 135
-0.00401 0.37430 -0.88181 159 151 132
-0.00007 0.37435 -0.88395 127 121 104
-0.00007 0.37380 -0.88393 127 121 102
0.00043 0.37437 -0.88364 137 131 117
0.00096 0.37383 -0.88342 147 139 124
0.00096 0.37438 -0.88356 147 141 127
0.00149 0.37384 -0.88334 151 140 125
0.00939 0.37436 -0.90062 151 144 131
0.00883 0.37374 -0.90082 157 150 135
0.01064 0.37433 -0.90510 124 121 112
0.01123 0.37373 -0.90486 83 83 88
0.01184 0.37431 -0.90907 80 80 86
0.01237 0.37433 -0.90844 56 61 80
0.13819 0.37685 -0.92497 92 91 78
-0.00543 0.37370 -0.88354 137 126 111
-0.00594 0.37314 -0.88372 130 121 104
-0.00494 0.37371 -0.88311 152 140 124
-0.00454 0.37374 -0.88165 162 152 131
-0.00403 0.37322 -0.88144 159 151 125
-0.00412 0.37377 -0.88048 158 151 127
-0.00361 0.37324 -0.88026 152 145 123
0.04535 0.37325 -0.98574 96 90 80
0.04617 0.37241 -0.98540 99 87 69
-0.00547 0.37316 -0.88295 136 126 109
-0.00598 0.37260 -0.88313 129 121 103
-0.00500 0.37318 -0.88228 150 138 121
-0.00456 0.37321 -0.88130 161 150 127
-0.00405 0.37268 -0.88109 159 150 129
0.04520 0.37240 -0.98497 97 88 77
0.04602 0.37156 -0.98463 101 89 68
-0.00558 0.37264 -0.88153 135 126 110
-0.00608 0.37209 -0.88171 128 120 105
-0.00507 0.37266 -0.88138 147 137 121
-0.00466 0.37269 -0.88009 159 149 129
-0.00415 0.37216 -0.87988 157 149 128
-0.00383 0.37275 -0.87776 152 145 127
0.04536 0.37153 -0.98561 97 89 74
0.04618 0.37069 -0.98527 101 92 67
-0.00569 0.37213 -0.88010 134 124 113
-0.00618 0.37158 -0.88028 127 119 113
-0.00518 0.37214 -0.87997 147 135 123
-0.00474 0.37217 -0.87902 158 147 129
-0.00423 0.37165 -0.87881 156 147 128
-0.00390 0.37223 -0.87694 150 143 125
0.04542 0.37066 -0.98582 97 92 74
0.04544 0.36980 -0.98579 99 92 81
0.04624 0.36982 -0.98547 102 92 70
0.13263 0.37369 -0.91908 88 77 66
0.13271 0.37372 -0.91780 78 68 62
0.13258 0.37375 -0.91620 78 72 63
-0.00577 0.37162 -0.87895 132 121 118
-0.00627 0.37108 -0.87912 127 121 115
-0.00527 0.37164 -0.87875 145 132 124
-0.00481 0.37166 -0.87816 157 146 129
-0.00430 0.37114 -0.87795 157 147 127
-0.00389 0.37170 -0.87694 150 141 123
-0.00338 0.37119 -0.87673 145 135 116
0.00124 0.37169 -0.88089 151 142 129
0.00175 0.37225 -0.88071 150 143 131
0.00175 0.37170 -0.88069 151 145 129
0.00176 0.37116 -0.88068 150 144 124
0.00874 0.37145 -0.89563 154 150 129
0.00819 0.37084 -0.89583 156 150 133
0.00931 0.37146 -0.89557 139 139 120
0.01051 0.37137 -0.89971 89 94 92
0.01119 0.37137 -0.90022 56 65 81
0.01177 0.37078 -0.89999 59 67 86
0.04455 0.36979 -0.98572 89 89 94
0.04537 0.36895 -0.98538 100 92 86
-0.00579 0.37110 -0.87868 130 122 115
-0.00628 0.37055 -0.87886 130 124 111
-0.00578 0.37056 -0.87866 129 124 109
-0.00529 0.37111 -0.87849 141 131 120
-0.00482 0.37113 -0.87795 156 145 129
-0.00431 0.37061 -0.87774 158 147 126
-0.00385 0.37116 -0.87729 150 141 121
0.01051 0.37077 -0.89964 91 95 90
0.01099 0.37080 -0.89882 58 65 76
-0.00537 0.37061 -0.87741 140 132 115
-0.00487 0.37062 -0.87720 155 145 127
-0.00437 0.37010 -0.87699 158 147 126
-0.00388 0.37064 -0.87687 152 143 119
-0.00339 0.37066 -0.87651 145 138 114
-0.00290 0.37068 -0.87632 144 134 114
-0.00289 0.37015 -0.87630 143 134 112
0.01048 0.37018 -0.89937 94 97 92
0.01104 0.37019 -0.89907 62 68 77
0.01162 0.37020 -0.89899 61 68 85
0.01219 0.37022 -0.89877 63 68 89
-0.00585 0.37006 -0.87763 132 126 109
-0.00635 0.37005 -0.87782 133 125 110
-0.00634 0.36952 -0.87780 134 127 110
-0.00585 0.36953 -0.87761 133 127 110
-0.00488 0.37010 -0.87702 155 145 127
-0.00438 0.36958 -0.87681 158 148 126
-0.00394 0.37014 -0.87604 153 144 119
-0.00345 0.37015 -0.87580 147 139 114
-0.00295 0.36964 -0.87559 143 133 111
-0.00483 0.36955 -0.87744 154 145 124
-0.00433 0.36903 -0.87723 159 147 130
-0.00391 0.36960 -0.87627 154 144 122
-0.00341 0.36961 -0.87620 148 138 116
-0.00290 0.36910 -0.87599 142 132 114
0.11416 0.36802 -0.96310 157 161 138
0.11334 0.36799 -0.96342 159 163 141
0.11415 0.36889 -0.96313 156 159 138
0.11496 0.36891 -0.96281 157 160 133
0.11498 0.36804 -0.96278 158 159 133
-0.00482 0.36902 -0.87745 152 143 128
-0.00432 0.36850 -0.87724 159 148 132
-0.00395 0.36909 -0.87577 155 144 125
-0.00345 0.36910 -0.87568 148 137 119
-0.00294 0.36859 -0.87547 143 132 120
0.00103 0.36887 -0.88326 138 132 113
0.00050 0.36940 -0.88348 129 126 107
0.00051 0.36885 -0.88346 130 124 106
0.00154 0.36943 -0.88308 146 139 120
0.00154 0.36888 -0.88306 145 138 120
0.11119 0.36637 -0.98241 165 169 147
0.11072 0.36650 -0.97908 162 168 144
0.11156 0.36743 -0.97878 156 163 137
0.11056 0.36659 -0.97646 160 165 144
0.11139 0.36752 -0.97616 159 162 142
0.11055 0.36668 -0.97424 162 164 146
0.11138 0.36760 -0.97394 162 166 147
0.11060 0.36676 -0.97216 164 169 147
0.11142 0.36767 -0.97186 161 164 147
0.11355 0.36703 -0.96584 161 163 147
-0.00575 0.36843 -0.87857 130 126 113
-0.00626 0.36895 -0.87878 133 127 109
-0.00625 0.36842 -0.87876 131 126 110
-0.00624 0.36789 -0.87874 130 125 109
-0.00482 0.36849 -0.87746 151 141 130
-0.00431 0.36797 -0.87725 159 149 131
-0.00397 0.36858 -0.87548 156 145 127
-0.00344 0.36858 -0.87562 148 137 122
-0.00294 0.36806 -0.87541 144 133 119
0.00041 0.36834 -0.88246 128 122 107
0.03518 0.36570 -0.95671 59 73 92
0.03592 0.36494 -0.95640 76 86 105
0.03626 0.36565 -0.95810 74 86 102
0.11005 0.36582 -0.97307 171 173 157
-0.00574 0.36790 -0.87861 129 123 109
-0.00623 0.36735 -0.87878 131 122 106
-0.00573 0.36736 -0.87859 131 120 103
-0.00480 0.36795 -0.87750 149 141 125
-0.00430 0.36744 -0.87729 157 150 129
-0.00391 0.36803 -0.87598 155 144 128
-0.00337 0.36802 -0.87626 149 137 123
-0.00144 0.36788 -0.88005 140 131 115
-0.00195 0.36840 -0.88026 142 132 118
-0.00194 0.36786 -0.88024 143 131 118
-0.00194 0.36732 -0.88023 142 130 112
-0.00077 0.36783 -0.88134 135 127 110
-0.00013 0.36779 -0.88236 129 121 104
0.00039 0.36725 -0.88214 126 117 102
0.00042 0.36779 -0.88244 128 118 104
0.00165 0.36774 -0.88379 147 135 121
0.00217 0.36720 -0.88357 147 138 120
0.03480 0.36500 -0.95476 60 71 94
0.03553 0.36425 -0.95445 79 86 104
0.10946 0.36498 -0.97170 180 185 168
-0.00479 0.36742 -0.87757 147 142 120
-0.00428 0.36690 -0.87736 156 150 132
-0.00383 0.36746 -0.87678 154 144 127
-0.00330 0.36746 -0.87695 149 138 122
-0.00265 0.36740 -0.87830 144 133 115
-0.00214 0.36688 -0.87808 141 129 112
-0.00129 0.36728 -0.88134 140 128 112
-0.00129 0.36673 -0.88133 139 127 110
-0.00066 0.36724 -0.88229 134 125 109
-0.00014 0.36670 -0.88207 125 119 101
-0.00003 0.36720 -0.88315 127 119 104
0.01316 0.36616 -0.90851 52 55 75
0.01375 0.36554 -0.90826 45 51 76
0.01375 0.36617 -0.90830 49 55 79
0.01435 0.36556 -0.90805 43 51 78
0.03461 0.36427 -0.95378 61 69 92
0.10868 0.36416 -0.96991 186 192 175
0.10952 0.36330 -0.96956 189 193 176
0.11645 0.36777 -0.89240 109 101 82
0.11581 0.36707 -0.89263 113 105 84
0.11645 0.36708 -0.89238 113 105 84
0.11710 0.36710 -0.89213 112 107 87
-0.00481 0.36691 -0.87716 146 141 122
-0.00379 0.36692 -0.87710 154 147 129
-0.00321 0.36689 -0.87773 148 139 124
-0.00052 0.36663 -0.88353 132 124 106
0.00000 0.36609 -0.88331 127 120 99
0.00047 0.36668 -0.88277 125 118 101
0.00048 0.36613 -0.88275 125 118 100
0.00100 0.36669 -0.88265 136 127 110
0.01266 0.36548 -0.90931 70 72 82
0.01208 0.36484 -0.90952 118 117 108
0.01330 0.36549 -0.90940 47 52 72
0.01391 0.36487 -0.90915 45 54 83
0.03363 0.36354 -0.95273 45 56 85
0.03293 0.36276 -0.95299 41 54 84
0.03440 0.36355 -0.95267 62 71 92
0.03485 0.36363 -0.95113 82 90 105
-0.00482 0.36638 -0.87704 145 139 121
-0.00434 0.36640 -0.87666 155 149 128
-0.00383 0.36589 -0.87645 155 146 124
-0.00376 0.36637 -0.87734 153 147 127
-0.00325 0.36585 -0.87713 148 140 120
-0.00318 0.36635 -0.87795 147 140 123
-0.00268 0.36583 -0.87773 143 133 114
0.00093 0.36617 -0.88194 135 127 110
0.00042 0.36561 -0.88212 124 117 105
0.00149 0.36616 -0.88216 145 137 119
0.00201 0.36563 -0.88195 147 141 125
0.01292 0.36477 -0.91096 69 74 84
0.03398 0.36289 -0.95060 62 73 97
0.03456 0.36294 -0.94968 85 93 109
-0.00551 0.36597 -0.87481 131 124 108
-0.00599 0.36543 -0.87499 127 122 109
-0.00500 0.36597 -0.87481 145 138 120
-0.00445 0.36594 -0.87532 156 147 127
-0.00395 0.36543 -0.87512 157 147 127
0.00091 0.36563 -0.88175 133 126 114
0.00041 0.36507 -0.88194 122 116 105
0.00147 0.36562 -0.88192 144 137 122
0.00199 0.36509 -0.88170 146 142 122
0.01302 0.36388 -0.91576 119 122 106
0.01364 0.36324 -0.91550 70 77 78
0.01310 0.36408 -0.91206 69 77 81
0.01371 0.36345 -0.91180 41 52 65
0.01353 0.36415 -0.91070 45 55 76
0.01413 0.36353 -0.91045 41 50 68
0.01407 0.36419 -0.91010 44 54 80
0.01465 0.36484 -0.90989 45 53 80
0.01467 0.36357 -0.90985 42 49 69
0.01894 0.36368 -0.92013 86 86 100
0.01957 0.36369 -0.91989 108 107 113
0.01958 0.36303 -0.91987 104 105 111
0.03403 0.36232 -0.94706 87 97 110
0.11145 0.36166 -0.96729 183 189 167
0.11233 0.36168 -0.96708 178 184 165
0.11304 0.36171 -0.96651 175 180 162
0.11388 0.36085 -0.96616 174 178 155
-0.00567 0.36556 -0.87277 129 122 111
-0.00615 0.36502 -0.87295 129 121 110
-0.00514 0.36554 -0.87307 145 136 125
-0.00453 0.36547 -0.87432 159 148 134
0.00083 0.36513 -0.88096 130 126 112
0.00033 0.36457 -0.88114 123 117 103
0.00136 0.36513 -0.88086 141 137 119
0.00188 0.36460 -0.88065 146 142 121
0.03372 0.36165 -0.94551 89 97 113
0.11112 0.36082 -0.96651 181 187 165
0.11203 0.36083 -0.96639 178 183 164
0.11299 0.36084 -0.96636 175 178 160
0.11970 0.36523 -0.88861 133 128 108
0.12034 0.36593 -0.88838 133 132 107
0.12035 0.36525 -0.88836 133 132 111
-0.00570 0.36506 -0.87240 131 121 111
-0.00617 0.36453 -0.87257 129 121 106
-0.00520 0.36455 -0.87220 143 134 118
-0.00524 0.36509 -0.87191 145 134 125
-0.00466 0.36504 -0.87279 159 148 136
-0.00416 0.36453 -0.87259 157 149 133
-0.00024 0.36458 -0.88083 127 120 104
0.00028 0.36405 -0.88061 126 116 100
0.00078 0.36461 -0.88038 128 125 109
0.00135 0.36460 -0.88068 139 136 117
0.03350 0.36097 -0.94438 90 96 110
0.10235 0.35980 -0.96840 188 197 180
0.10152 0.36065 -0.96875 188 196 178
0.10154 0.35890 -0.96870 204 212 196
0.10234 0.36067 -0.96843 187 196 178
0.11059 0.36001 -0.96533 187 194 177
0.11178 0.35998 -0.96580 186 192 177
0.11266 0.36000 -0.96560 180 186 171
0.11375 0.35999 -0.96584 180 184 166
0.11473 0.35999 -0.96586 178 182 158
0.12034 0.36449 -0.88951 128 122 108
0.12193 0.36443 -0.89065 133 129 112
0.12257 0.36514 -0.89042 130 130 110
0.12258 0.36445 -0.89039 129 128 113
0.12259 0.36376 -0.89037 128 126 115
-0.00587 0.36467 -0.87023 130 122 107
-0.00634 0.36415 -0.87040 128 122 105
-0.00586 0.36416 -0.87021 128 122 105
-0.00473 0.36458 -0.87186 158 148 131
-0.00424 0.36407 -0.87166 156 149 133
-0.00375 0.36459 -0.87167 148 141 125
-0.00315 0.36454 -0.87258 141 134 117
-0.00267 0.36507 -0.87240 138 129 111
-0.00267 0.36455 -0.87239 139 131 114
-0.00266 0.36403 -0.87237 139 131 113
-0.00025 0.36405 -0.88060 130 118 101
0.00026 0.36352 -0.88038 128 116 101
0.00080 0.36406 -0.88049 129 122 108
0.00138 0.36404 -0.88091 139 134 117
0.00198 0.36401 -0.88144 146 142 121
0.00249 0.36457 -0.88126 147 142 124
0.00249 0.36402 -0.88124 147 143 122
0.00250 0.36347 -0.88122 147 142 122
0.03177 0.36029 -0.94321 42 56 83
0.03109 0.35954 -0.94346 40 53 84
0.03256 0.36028 -0.94343 62 72 93
0.03350 0.36023 -0.94433 90 94 108
0.10224 0.35894 -0.96809 199 205 190
0.10143 0.35805 -0.96838 216 224 209
0.10296 0.35898 -0.96756 200 205 190
0.10342 0.35905 -0.96642 205 210 197
0.10425 0.35820 -0.96608 214 220 211
0.10404 0.35910 -0.96564 205 210 201
0.10486 0.35825 -0.96530 209 215 207
0.10506 0.35909 -0.96580 203 207 200
0.10992 0.35922 -0.96383 199 205 190
0.11075 0.35837 -0.96349 203 208 193
0.11092 0.35922 -0.96391 197 204 188
0.11231 0.35917 -0.96480 191 199 184
0.11348 0.35915 -0.96521 190 194 183
0.11988 0.36377 -0.89000 105 102 97
0.11924 0.36307 -0.89023 102 100 87
0.12282 0.36366 -0.89191 129 124 115
-0.00478 0.36410 -0.87119 155 148 131
-0.00429 0.36360 -0.87099 157 148 134
-0.00381 0.36412 -0.87093 149 142 127
-0.00332 0.36362 -0.87073 144 135 119
-0.00023 0.36350 -0.88072 133 120 102
0.00029 0.36297 -0.88051 128 120 104
0.00083 0.36350 -0.88066 131 122 107
0.00143 0.36347 -0.88123 140 133 117
0.00199 0.36346 -0.88142 146 140 121
0.00251 0.36292 -0.88120 148 140 120
0.03159 0.35961 -0.94225 43 56 87
0.03091 0.35886 -0.94249 40 52 85
0.03257 0.35954 -0.94337 59 71 95
0.03327 0.35882 -0.94307 81 89 108
0.03343 0.35951 -0.94391 86 92 109
0.10164 0.35816 -0.96665 213 216 203
0.10084 0.35727 -0.96694 216 222 207
0.10247 0.35731 -0.96630 210 214 203
0.10227 0.35821 -0.96590 211 213 201
0.10289 0.35826 -0.96514 216 219 207
0.10936 0.35843 -0.96255 207 211 197
0.11957 0.36311 -0.88951 99 99 86
0.11894 0.36241 -0.88974 105 100 84
0.11958 0.36243 -0.88949 103 98 83
0.12148 0.36301 -0.89112 105 105 95
0.12321 0.36293 -0.89245 118 118 105
0.12518 0.36283 -0.89411 125 124 108
0.12583 0.36355 -0.89388 127 126 115
0.12584 0.36284 -0.89386 125 125 111
-0.00472 0.36355 -0.87177 154 146 135
-0.00423 0.36304 -0.87157 159 147 133
-0.00080 0.36298 -0.88030 138 128 111
-0.00130 0.36242 -0.88048 138 130 118
-0.00079 0.36244 -0.88028 137 130 115
-0.00019 0.36293 -0.88101 133 123 105
0.00033 0.36240 -0.88079 129 121 108
0.00088 0.36294 -0.88100 131 124 110
0.00146 0.36291 -0.88139 141 131 117
0.00196 0.36293 -0.88114 148 138 120
0.00248 0.36239 -0.88092 148 140 117
0.10085 0.35741 -0.96476 214 217 203
0.10005 0.35653 -0.96505 204 207 193
0.10211 0.35751 -0.96331 211 215 206
0.10275 0.35756 -0.96261 210 213 205
0.10357 0.35672 -0.96227 196 202 196
0.10866 0.35767 -0.96099 208 212 195
0.10980 0.35764 -0.96140 197 200 188
0.12117 0.36235 -0.89063 100 97 83
0.12053 0.36164 -0.89086 105 99 85
0.12118 0.36166 -0.89061 101 98 84
0.12495 0.36214 -0.89375 120 118 98
0.12652 0.36207 -0.89481 126 124 109
0.12717 0.36280 -0.89457 127 122 112
0.12718 0.36209 -0.89455 128 123 114
0.12719 0.36138 -0.89453 128 122 110
-0.00016 0.36237 -0.88123 133 125 109
-0.00066 0.36181 -0.88141 138 130 112
0.00093 0.36236 -0.88140 130 122 111
0.00151 0.36233 -0.88181 138 130 114
0.00204 0.36180 -0.88159 146 140 122
0.00202 0.36235 -0.88150 147 139 117
0.00254 0.36182 -0.88129 148 140 118
0.01242 0.36058 -0.90705 90 94 93
0.10206 0.35680 -0.96100 197 202 196
0.10288 0.35597 -0.96066 201 204 192
0.12255 0.36160 -0.89142 99 98 82
0.12191 0.36089 -0.89165 103 98 82
0.12256 0.36091 -0.89140 98 96 81
0.12432 0.36150 -0.89280 109 109 91
0.12517 0.36150 -0.89281 124 120 105
-0.00004 0.36175 -0.88223 134 126 109
-0.00054 0.36119 -0.88242 138 129 107
0.00048 0.36176 -0.88207 128 120 105
0.00102 0.36176 -0.88210 127 121 106
0.00159 0.36174 -0.88240 136 130 114
0.01217 0.36008 -0.90536 93 99 91
0.03637 0.35682 -0.95033 54 61 85
0.03715 0.35681 -0.95037 88 88 99
0.03787 0.35607 -0.95006 100 96 90
0.09768 0.35591 -0.96161 188 194 181
0.09849 0.35508 -0.96128 184 190 178
0.12367 0.36087 -0.89181 100 100 85
0.12303 0.36016 -0.89204 101 96 81
0.12429 0.36090 -0.89150 114 112 97
0.12447 0.36096 -0.89057 123 120 102
0.12511 0.36167 -0.89033 126 122 107
0.12512 0.36098 -0.89031 123 123 105
-0.00232 0.36133 -0.88064 142 134 109
-0.00182 0.36188 -0.88046 140 128 113
-0.00181 0.36134 -0.88044 138 129 108
-0.00180 0.36080 -0.88042 140 130 109
0.00009 0.36112 -0.88334 135 125 103
-0.00042 0.36056 -0.88352 138 129 109
0.00063 0.36112 -0.88332 128 119 98
0.00114 0.36114 -0.88310 127 118 100
0.00170 0.36113 -0.88319 136 128 111
0.00215 0.36118 -0.88245 144 138 120
0.00267 0.36120 -0.88225 146 139 120
0.00267 0.36064 -0.88224 145 140 119
0.01188 0.35930 -0.90743 140 140 117
0.01130 0.35866 -0.90764 150 145 126
0.01272 0.35949 -0.90481 57 66 79
0.01331 0.35889 -0.90456 47 59 81
0.03673 0.35593 -0.95195 54 61 83
0.03752 0.35593 -0.95198 89 88 100
0.03825 0.35518 -0.95168 100 96 89
0.08722 0.35349 -0.98312 146 150 140
0.07629 0.36239 -0.86362 126 126 110
0.07682 0.36298 -0.86343 124 122 107
0.07683 0.36240 -0.86341 125 123 106
0.07684 0.36183 -0.86340 124 126 109
0.12247 0.36031 -0.89002 98 93 83
0.12183 0.35960 -0.89025 106 95 82
0.12248 0.35962 -0.89000 101 94 81
0.12328 0.36031 -0.89000 102 99 87
-0.00284 0.36079 -0.88063 149 140 115
-0.00226 0.36075 -0.88116 144 135 110
-0.00174 0.36021 -0.88094 141 131 111
0.00025 0.36047 -0.88467 136 125 105
-0.00027 0.35990 -0.88485 137 129 109
0.00081 0.36045 -0.88481 128 117 97
0.00133 0.35991 -0.88459 127 117 100
0.00130 0.36048 -0.88439 128 117 97
0.00187 0.36047 -0.88460 136 127 108
0.00232 0.36053 -0.88380 144 137 117
0.00285 0.35998 -0.88358 144 139 113
0.01191 0.35866 -0.90758 143 139 118
0.01133 0.35802 -0.90779 153 143 126
0.01259 0.35863 -0.90796 101 102 92
0.01278 0.35884 -0.90517 59 67 76
0.01337 0.35824 -0.90492 49 58 78
0.03813 0.35495 -0.95470 88 89 102
0.03886 0.35419 -0.95439 100 97 88
0.08738 0.35276 -0.98084 149 155 146
-0.00507 0.36039 -0.87888 129 122 102
-0.00558 0.36092 -0.87909 128 120 102
-0.00558 0.36038 -0.87907 128 122 104
-0.00557 0.35985 -0.87906 129 125 108
-0.00507 0.35986 -0.87886 130 124 104
-0.00457 0.36041 -0.87871 136 126 108
-0.00397 0.36033 -0.87963 149 138 120
-0.00346 0.35981 -0.87941 154 143 121
-0.00275 0.36018 -0.88149 150 138 117
-0.00217 0.36014 -0.88192 146 135 114
0.00038 0.35982 -0.88579 134 127 107
-0.00014 0.35925 -0.88598 136 127 106
0.00091 0.35928 -0.88557 127 121 101
0.00098 0.35978 -0.88627 128 120 101
0.00151 0.35923 -0.88605 125 117 101
0.01221 0.35788 -0.90948 145 139 119
0.01162 0.35724 -0.90969 152 143 127
0.01288 0.35786 -0.90978 103 103 93
0.01295 0.35814 -0.90615 60 67 75
0.03862 0.35399 -0.95688 88 88 100
0.03936 0.35323 -0.95657 102 96 92
0.12057 0.35962 -0.88140 126 122 110
0.12118 0.36030 -0.88118 126 122 106
0.12119 0.35963 -0.88115 125 121 110
0.12120 0.35897 -0.88113 126 119 112
-0.00395 0.35978 -0.87972 148 138 116
-0.00273 0.35963 -0.88153 152 140 122
-0.00217 0.35960 -0.88184 147 135 118
-0.00165 0.35907 -0.88163 140 129 106
-0.00151 0.35949 -0.88313 141 130 112
-0.00100 0.36005 -0.88295 137 128 109
-0.00100 0.35950 -0.88293 138 127 109
-0.00099 0.35895 -0.88292 138 127 105
0.01215 0.35729 -0.90901 146 140 122
0.01157 0.35664 -0.90922 150 145 130
0.01257 0.35739 -0.90770 107 107 99
0.01300 0.35749 -0.90644 62 69 81
0.01359 0.35751 -0.90624 49 58 82
0.01417 0.35815 -0.90603 46 57 81
0.01418 0.35752 -0.90601 46 57 84
0.01419 0.35690 -0.90599 47 58 86
0.03644 0.35284 -0.96155 57 68 87
0.03719 0.35207 -0.96124 84 90 106
0.03897 0.35308 -0.95841 88 88 103
0.03972 0.35232 -0.95810 103 96 97
0.08995 0.35185 -0.96993 184 187 176
-0.00442 0.35921 -0.88020 135 127 107
-0.00492 0.35865 -0.88038 132 122 107
-0.00390 0.35921 -0.88014 147 139 117
0.00263 0.35826 -0.89083 131 125 103
0.00210 0.35767 -0.89102 123 117 97
0.01232 0.35657 -0.91007 146 142 123
0.01173 0.35592 -0.91028 151 146 132
0.01289 0.35659 -0.90968 114 112 106
0.01314 0.35680 -0.90724 66 72 85
0.01370 0.35683 -0.90686 49 58 83
0.01430 0.35622 -0.90661 47 58 84
0.03690 0.35186 -0.96367 55 65 85
0.03765 0.35109 -0.96335 80 88 105
0.03835 0.35192 -0.96290 59 67 86
0.03895 0.35200 -0.96192 53 61 86
0.03917 0.35222 -0.95925 89 88 104
0.03992 0.35145 -0.95894 104 97 93
0.08999 0.35098 -0.96998 187 192 180
-0.00441 0.35866 -0.88021 134 125 108
-0.00491 0.35811 -0.88039 130 121 106
-0.00389 0.35866 -0.88017 143 137 119
-0.00338 0.35814 -0.87996 154 144 125
0.00294 0.35745 -0.89344 131 124 100
0.00241 0.35686 -0.89363 122 118 99
0.00358 0.35740 -0.89401 140 135 111
0.00413 0.35683 -0.89378 146 137 119
0.01237 0.35591 -0.91033 147 142 125
0.01178 0.35526 -0.91054 151 147 130
0.01288 0.35597 -0.90958 118 118 111
0.01305 0.35623 -0.90657 69 76 87
0.01366 0.35623 -0.90651 49 58 81
0.01425 0.35562 -0.90626 48 56 82
0.03714 0.35097 -0.96475 54 61 86
0.03790 0.35019 -0.96443 76 83 102
0.03842 0.35110 -0.96317 56 64 84
0.03912 0.35114 -0.96266 51 59 83
0.03952 0.35130 -0.96076 87 87 99
0.04027 0.35053 -0.96045 104 96 91
0.08517 0.35019 -0.96944 172 175 166
0.08588 0.35024 -0.96886 177 182 174
0.08685 0.35022 -0.96900 179 182 175
0.08803 0.35015 -0.96966 179 181 174
0.11912 0.35800 -0.87703 122 118 106
0.11972 0.35867 -0.87681 127 121 112
0.11973 0.35802 -0.87679 126 120 108
-0.00438 0.35810 -0.88047 131 123 107
-0.00488 0.35755 -0.88065 128 120 107
-0.00386 0.35810 -0.88045 142 133 118
0.01238 0.35527 -0.91031 148 144 126
0.01179 0.35462 -0.91052 150 146 127
0.01314 0.35556 -0.90706 70 77 84
0.03640 0.35015 -0.96500 43 50 82
0.03566 0.34933 -0.96526 39 51 78
0.03716 0.35017 -0.96476 52 59 87
0.03792 0.34939 -0.96444 72 80 103
0.03848 0.35028 -0.96333 57 62 79
0.03927 0.35028 -0.96327 51 57 76
0.03944 0.35055 -0.96031 88 87 97
0.04019 0.34977 -0.96000 102 95 89
0.08434 0.34955 -0.96713 160 166 150
0.08537 0.34951 -0.96743 164 170 158
0.08651 0.34945 -0.96803 169 172 161
0.08776 0.34936 -0.96890 171 174 161
0.08858 0.34852 -0.96856 175 179 160
-0.00438 0.35757 -0.88038 129 122 109
-0.00488 0.35701 -0.88056 126 119 107
0.01239 0.35464 -0.91031 149 144 126
0.01180 0.35399 -0.91052 150 144 128
0.01301 0.35464 -0.91027 126 124 116
0.01306 0.35498 -0.90652 70 75 84
0.03634 0.34938 -0.96464 42 53 83
0.03560 0.34856 -0.96491 39 50 81
0.03724 0.34933 -0.96508 49 60 88
0.03800 0.34855 -0.96476 70 78 100
0.03839 0.34953 -0.96283 54 63 82
0.03918 0.34953 -0.96276 50 58 78
0.03950 0.34973 -0.96052 84 86 95
0.04025 0.34896 -0.96021 100 95 91
0.01256 0.35390 -0.91138 149 144 125
0.01197 0.35325 -0.91159 149 143 128
0.01320 0.35389 -0.91141 129 128 116
0.03598 0.34876 -0.96279 41 54 82
0.03524 0.34795 -0.96306 40 52 82
0.03599 0.34797 -0.96277 41 52 82
0.03692 0.34869 -0.96344 48 59 86
0.03767 0.34791 -0.96313 69 77 95
0.03813 0.34886 -0.96154 55 65 82
0.03884 0.34889 -0.96111 49 58 78
0.03938 0.34900 -0.95992 82 84 97
0.04013 0.34823 -0.95960 97 95 92
0.01252 0.35329 -0.91104 148 144 127
0.01193 0.35264 -0.91125 148 143 126
0.01318 0.35327 -0.91122 131 131 118
0.03662 0.34804 -0.96194 48 58 84
0.03589 0.34723 -0.96220 39 51 82
0.03737 0.34727 -0.96162 69 75 96
0.01257 0.35263 -0.91132 148 143 126
0.01199 0.35197 -0.91153 149 143 123
0.01326 0.35258 -0.91167 133 130 118
0.03629 0.34742 -0.96026 49 56 84
0.03556 0.34661 -0.96052 39 51 84
0.05058 0.34497 -0.98289 96 90 74
0.04976 0.34581 -0.98323 102 97 75
0.05057 0.34583 -0.98291 98 94 75
0.05059 0.34411 -0.98286 92 87 70
0.05138 0.34499 -0.98257 94 89 72
0.05140 0.34413 -0.98255 93 88 72
0.06932 0.34479 -0.98228 102 102 84
0.06851 0.34389 -0.98257 98 98 78
0.06994 0.34488 -0.98127 105 108 90
0.07074 0.34578 -0.98098 109 112 103
0.07046 0.34500 -0.98000 108 111 96
0.07127 0.34590 -0.97971 110 112 99
0.07128 0.34503 -0.97968 110 111 97
0.07259 0.34489 -0.98091 105 108 91
0.07342 0.34403 -0.98056 103 102 89
0.07514 0.34463 -0.98313 110 112 98
0.01259 0.35199 -0.91131 149 142 122
0.01200 0.35134 -0.91152 149 143 123
0.01331 0.35191 -0.91194 135 130 115
0.03917 0.34712 -0.95513 91 93 92
0.03989 0.34791 -0.95487 96 93 75
0.03990 0.34714 -0.95485 97 92 84
0.03991 0.34636 -0.95482 98 92 86
0.06923 0.34395 -0.98191 101 98 80
0.06842 0.34305 -0.98220 97 97 80
0.06924 0.34307 -0.98188 100 95 81
0.06994 0.34401 -0.98121 105 103 86
0.07042 0.34415 -0.97979 107 107 89
0.07125 0.34330 -0.97945 105 106 86
0.07165 0.34403 -0.98081 108 109 89
0.07249 0.34317 -0.98046 104 105 86
0.07253 0.34403 -0.98065 104 105 87
0.07336 0.34318 -0.98031 104 101 86
0.07489 0.34383 -0.98227 105 105 92
0.07491 0.34295 -0.98225 106 101 90
0.01257 0.35137 -0.91114 148 144 123
0.01198 0.35072 -0.91135 148 142 124
0.01328 0.35130 -0.91163 134 133 116
0.01396 0.35127 -0.91191 86 88 88
0.01533 0.35075 -0.91659 53 60 79
0.01595 0.35011 -0.91633 45 57 82
0.03638 0.34620 -0.95676 64 73 89
0.03690 0.34633 -0.95550 53 63 82
0.03754 0.34639 -0.95482 46 57 81
0.03827 0.34641 -0.95453 73 79 94
0.03888 0.34649 -0.95374 92 92 94
0.03962 0.34573 -0.95344 98 91 84
0.06955 0.34328 -0.97987 104 99 84
0.06874 0.34239 -0.98016 99 96 79
0.06956 0.34241 -0.97984 102 99 82
0.07038 0.34243 -0.97952 104 102 82
0.07017 0.34337 -0.97891 105 104 87
0.07100 0.34252 -0.97856 104 103 83
0.12188 0.35356 -0.87518 120 113 108
0.12248 0.35423 -0.87497 124 116 112
0.12249 0.35357 -0.87495 122 115 108
0.01259 0.35073 -0.91115 147 145 124
0.01200 0.35007 -0.91137 150 142 127
0.01260 0.35009 -0.91113 149 145 126
0.01330 0.35065 -0.91172 135 135 116
0.01383 0.35072 -0.91103 89 91 88
0.01504 0.35031 -0.91466 54 61 78
0.01566 0.34968 -0.91441 47 56 82
0.03848 0.34592 -0.95185 93 92 95
0.03921 0.34517 -0.95154 96 92 78
0.01320 0.35010 -0.91092 137 136 121
0.01261 0.34945 -0.91113 148 143 128
0.01386 0.35007 -0.91111 90 93 91
0.01463 0.34996 -0.91202 55 61 78
0.01524 0.34933 -0.91176 47 55 77
0.01313 0.34953 -0.91039 138 135 123
0.01254 0.34888 -0.91060 150 143 129
0.01387 0.34943 -0.91108 92 93 91
0.01439 0.34950 -0.91041 55 60 73
0.01500 0.34888 -0.91016 47 56 76
0.01306 0.34895 -0.90986 141 135 120
0.01369 0.34894 -0.90989 94 93 85
0.01426 0.34897 -0.90950 55 62 69
0.01486 0.34835 -0.90925 46 57 79
0.01227 0.34846 -0.90875 151 141 126
0.01167 0.34908 -0.90899 148 140 125
0.01168 0.34845 -0.90897 150 140 124
0.01169 0.34782 -0.90895 149 139 125
0.01228 0.34783 -0.90873 150 139 125
0.01301 0.34836 -0.90950 141 135 119
0.01365 0.34834 -0.90956 96 96 90
0.01412 0.34845 -0.90855 55 63 74
0.01473 0.34783 -0.90830 47 59 80
0.10504 0.33788 -0.98263 179 184 181
0.10417 0.33877 -0.98299 182 188 177
0.10419 0.33785 -0.98296 184 188 185
0.10503 0.33879 -0.98266 184 193 182
0.10589 0.33881 -0.98232 188 195 185
0.10591 0.33698 -0.98227 175 180 176
0.01288 0.34784 -0.90854 141 134 118
0.01230 0.34720 -0.90875 148 142 123
0.01350 0.34783 -0.90852 100 101 94
0.01407 0.34787 -0.90811 58 67 75
0.01281 0.34728 -0.90799 142 137 119
0.01334 0.34734 -0.90741 103 103 93
0.01408 0.34724 -0.90811 60 68 75
0.01475 0.34719 -0.90836 47 57 82
0.01533 0.34784 -0.90815 47 56 83
0.01534 0.34721 -0.90813 46 53 83
0.01535 0.34658 -0.90811 45 54 81
0.00308 0.34933 -0.88855 128 122 103
0.00254 0.34988 -0.88878 124 118 104
0.00255 0.34931 -0.88876 122 116 100
0.00255 0.34874 -0.88874 124 114 100
0.00307 0.34989 -0.88857 130 124 106
0.00360 0.34991 -0.88836 140 131 112
0.01194 0.34689 -0.90624 145 139 116
0.01134 0.34750 -0.90649 147 140 122
0.01135 0.34687 -0.90647 145 139 122
0.01136 0.34625 -0.90645 142 137 118
0.01194 0.34627 -0.90623 142 137 115
0.01262 0.34682 -0.90669 142 137 116
0.01320 0.34684 -0.90642 107 105 96
0.01399 0.34668 -0.90750 60 66 74
0.01459 0.34607 -0.90725 46 54 79
0.01463 0.34666 -0.90756 47 55 78
0.01523 0.34605 -0.90731 45 54 80
0.00313 0.34871 -0.88889 130 119 107
0.00260 0.34813 -0.88908 125 112 99
0.01225 0.34652 -0.90419 142 136 117
0.01168 0.34589 -0.90440 143 137 118
0.01302 0.34638 -0.90517 112 109 102
0.01388 0.34616 -0.90667 64 68 80
0.01447 0.34555 -0.90643 46 54 77
0.01197 0.34616 -0.90224 144 135 119
0.01140 0.34553 -0.90244 144 137 121
0.01277 0.34598 -0.90350 113 109 102
0.01382 0.34559 -0.90627 67 69 78
0.01442 0.34498 -0.90603 46 54 74
0.04106 0.33748 -0.96280 87 86 86
0.04182 0.33670 -0.96248 93 87 73
0.01158 0.34591 -0.89963 142 135 122
0.01102 0.34529 -0.89983 144 136 120
0.01225 0.34583 -0.90008 115 112 108
0.01368 0.34510 -0.90526 67 72 80
0.01427 0.34449 -0.90501 47 55 77
0.04030 0.33667 -0.96297 60 62 74
0.04125 0.33656 -0.96357 85 83 82
0.04202 0.33578 -0.96326 92 87 78
0.01149 0.34539 -0.89895 141 135 123
0.01093 0.34477 -0.89915 145 135 117
0.01206 0.34541 -0.89874 117 115 112
0.01337 0.34476 -0.90322 70 75 83
0.01395 0.34416 -0.90298 48 54 76
0.04038 0.33583 -0.96322 61 61 77
0.04131 0.33573 -0.96376 85 83 85
0.04207 0.33495 -0.96344 92 86 81
0.01134 0.34494 -0.89790 142 134 119
0.01078 0.34432 -0.89810 145 138 119
0.01181 0.34503 -0.89711 120 117 112
0.01317 0.34433 -0.90188 71 76 84
0.04019 0.33516 -0.96229 59 61 78
0.04108 0.33508 -0.96266 86 86 90
0.04184 0.33430 -0.96235 95 89 82
0.01136 0.34433 -0.89794 142 137 120
0.01080 0.34371 -0.89814 145 138 119
0.01185 0.34441 -0.89726 121 120 114
0.03900 0.33465 -0.96047 41 50 73
0.03826 0.33463 -0.96076 48 55 76
0.03827 0.33384 -0.96073 51 57 76
0.03901 0.33386 -0.96044 44 52 72
0.01144 0.34366 -0.89839 142 138 119
0.01088 0.34304 -0.89859 144 137 115
0.01199 0.34369 -0.89807 126 124 109
0.01282 0.34344 -0.89959 78 79 79
0.01357 0.34329 -0.90046 49 54 71
0.01415 0.34270 -0.90021 46 53 71
0.03990 0.33430 -0.95720 90 85 80
0.04064 0.33354 -0.95689 94 90 77
0.01146 0.34303 -0.89849 142 135 116
0.01091 0.34242 -0.89870 142 134 115
0.01203 0.34305 -0.89827 127 122 105
0.01349 0.34277 -0.89988 48 55 67
0.01407 0.34217 -0.89964 45 53 70
0.03834 0.33355 -0.95730 49 52 61
0.03761 0.33353 -0.95758 52 56 66
0.03916 0.33351 -0.95738 68 69 71
0.03971 0.33365 -0.95630 90 86 77
0.04046 0.33289 -0.95599 93 87 75
0.01149 0.34242 -0.89857 142 135 118
0.01093 0.34180 -0.89877 142 132 116
0.01207 0.34241 -0.89847 127 122 107
0.01281 0.34226 -0.89935 81 81 79
0.01347 0.34219 -0.89967 49 56 69
0.01405 0.34159 -0.89943 46 51 66
0.03713 0.33310 -0.95529 59 60 68
0.03639 0.33386 -0.95560 52 57 73
0.03641 0.33308 -0.95558 53 59 74
0.03799 0.33303 -0.95558 60 59 66
0.03882 0.33298 -0.95577 75 72 77
0.03949 0.33304 -0.95524 91 83 80
0.04023 0.33228 -0.95493 92 84 73
0.01156 0.34174 -0.89899 141 133 115
0.01100 0.34112 -0.89919 140 131 115
0.01157 0.34114 -0.89897 140 133 114
0.01214 0.34175 -0.89885 128 123 106
0.01274 0.34173 -0.89884 85 84 77
0.01342 0.34164 -0.89928 51 56 65
0.01399 0.34105 -0.89904 47 54 67
0.03623 0.33244 -0.95469 54 58 77
0.03697 0.33169 -0.95438 67 69 77
0.03797 0.33227 -0.95543 71 67 65
0.03889 0.33215 -0.95603 79 73 70
0.01212 0.34118 -0.89862 129 126 108
0.01272 0.34116 -0.89861 88 88 82
0.01336 0.34109 -0.89887 54 59 68
0.01394 0.34050 -0.89863 47 54 68
0.03560 0.33159 -0.95532 42 50 77
0.03488 0.33080 -0.95558 39 49 73
0.03623 0.33168 -0.95458 54 61 82
0.03696 0.33093 -0.95427 69 69 77
0.03935 0.33104 -0.95804 79 73 57
0.03863 0.33023 -0.95830 76 69 64
0.03936 0.33025 -0.95802 80 72 57
0.04010 0.33027 -0.95773 85 79 63
0.01149 0.34063 -0.89839 137 131 116
0.01093 0.34061 -0.89861 138 132 119
0.01094 0.34001 -0.89859 137 131 117
0.01150 0.34002 -0.89837 135 130 112
0.01203 0.34067 -0.89801 129 126 113
0.01287 0.34041 -0.89949 88 92 87
0.01342 0.34044 -0.89917 53 62 70
0.01400 0.33984 -0.89893 45 51 65
0.03525 0.33110 -0.95358 41 48 69
0.03454 0.33031 -0.95384 39 47 72
0.03526 0.33033 -0.95356 40 48 66
0.03606 0.33105 -0.95370 54 60 76
0.01214 0.33996 -0.89865 129 127 109
0.01159 0.33934 -0.89885 137 131 118
0.01281 0.33987 -0.89904 91 93 83
0.01324 0.34002 -0.89800 53 59 62
0.01382 0.33943 -0.89776 47 51 67
0.01216 0.33935 -0.89865 133 127 111
0.01160 0.33873 -0.89885 138 132 118
0.01269 0.33940 -0.89823 98 95 84
0.01328 0.33939 -0.89814 58 60 64
0.01385 0.33880 -0.89790 45 52 72
0.03585 0.32908 -0.95631 41 49 68
0.03512 0.32906 -0.95659 39 47 71
0.03513 0.32829 -0.95657 40 47 74
0.03586 0.32830 -0.95628 44 48 68
0.01212 0.33879 -0.89837 137 130 118
0.01157 0.33817 -0.89857 140 130 113
0.01269 0.33880 -0.89817 102 100 92
0.01334 0.33873 -0.89846 58 64 71
0.01392 0.33814 -0.89822 48 52 68
0.01197 0.33837 -0.89731 140 132 113
0.01141 0.33775 -0.89751 139 130 114
0.01253 0.33838 -0.89708 106 103 90
0.01334 0.33813 -0.89837 63 63 68
0.01391 0.33754 -0.89813 50 49 65
0.01176 0.33801 -0.89590 139 131 111
0.01121 0.33740 -0.89610 140 131 112
0.01230 0.33805 -0.89553 108 105 91
0.01327 0.33761 -0.89790 62 62 66
0.01385 0.33702 -0.89767 49 51 64
0.00316 0.33996 -0.88320 122 114 101
0.00265 0.33939 -0.88339 121 112 93
0.00363 0.34005 -0.88261 132 122 110
0.00416 0.33950 -0.88239 136 129 115
0.01200 0.33780 -0.89360 112 110 97
0.01305 0.33726 -0.89643 63 66 67
0.01362 0.33668 -0.89620 48 57 62
0.00311 0.33949 -0.88271 122 113 101
0.00260 0.33892 -0.88290 122 110 98
0.00358 0.33958 -0.88210 130 122 111
0.00471 0.33948 -0.88241 135 129 111
0.00472 0.33892 -0.88239 134 129 114
0.00524 0.33894 -0.88219 130 126 111
0.01188 0.33735 -0.89279 114 115 96
0.01279 0.33697 -0.89474 63 71 64
0.01335 0.33639 -0.89451 50 55 65
0.00298 0.33914 -0.88162 123 111 99
0.00248 0.33857 -0.88180 120 112 99
0.00299 0.33858 -0.88160 121 111 100
0.00344 0.33923 -0.88096 130 119 105
0.00395 0.33926 -0.88069 135 127 111
0.00447 0.33872 -0.88047 136 129 104
0.01155 0.33716 -0.89062 117 114 99
0.01257 0.33663 -0.89335 69 71 68
0.01314 0.33605 -0.89312 52 55 70
0.00347 0.33865 -0.88110 129 118 100
0.00296 0.33809 -0.88128 120 113 100
0.00400 0.33812 -0.88088 136 126 100
0.00397 0.33869 -0.88079 136 127 101
0.00450 0.33815 -0.88057 136 129 101
0.01146 0.33669 -0.89002 120 115 106
0.01236 0.33630 -0.89195 71 71 75
0.01292 0.33572 -0.89172 57 55 70
0.00347 0.33811 -0.88104 129 119 102
0.01138 0.33621 -0.88943 124 117 102
0.01233 0.33575 -0.89173 76 73 74
0.00292 0.33762 -0.88086 119 113 99
0.00240 0.33815 -0.88108 121 113 97
0.00241 0.33760 -0.88106 120 112 96
0.00241 0.33705 -0.88104 118 111 95
0.00349 0.33754 -0.88112 129 118 108
0.00396 0.33763 -0.88055 136 124 111
0.00448 0.33764 -0.88035 138 128 108
0.00449 0.33709 -0.88034 137 126 114
0.01144 0.33558 -0.88970 124 120 101
0.00293 0.33706 -0.88090 118 111 99
