ply
format ascii 1.0
element face 0
property list uchar int vertex_indices
element vertex 1307
property float x
property float y
property float z
property uchar diffuse_red
property uchar diffuse_green
property uchar diffuse_blue
end_header
0.09939 0.45983 -1.08052 127 112 105
0.09997 0.46000 -1.08110 91 64 64
0.10057 0.46020 -1.08178 105 71 73
0.10111 0.46023 -1.08178 122 89 96
0.10144 0.45969 -1.07947 158 134 137
0.11591 0.46018 -1.07823 180 181 168
0.11648 0.46023 -1.07832 187 189 176
0.11701 0.45970 -1.07820 192 193 180
0.08213 0.45689 -1.07438 115 108 99
0.08163 0.45638 -1.07447 129 120 107
0.08261 0.45743 -1.07654 101 96 86
0.08312 0.45692 -1.07642 102 91 89
0.08412 0.45851 -1.08068 103 95 95
0.08361 0.45798 -1.08078 102 90 91
0.08465 0.45924 -1.08359 124 116 117
0.08517 0.45870 -1.08347 139 128 114
0.08625 0.45988 -1.08590 133 126 112
0.08572 0.45934 -1.08600 136 124 109
0.08680 0.46016 -1.08694 149 141 129
0.08733 0.45962 -1.08682 159 147 136
0.09872 0.45881 -1.07863 153 154 140
0.09933 0.45909 -1.07968 126 116 110
0.09997 0.45945 -1.08103 93 71 69
0.10050 0.45945 -1.08092 105 73 77
0.10103 0.45947 -1.08085 122 89 94
0.10538 0.45975 -1.08106 184 178 170
0.10591 0.46030 -1.08096 187 184 172
0.10586 0.45965 -1.08054 186 180 173
0.10639 0.46019 -1.08043 190 185 172
0.10655 0.46000 -1.08182 188 183 172
0.10708 0.46054 -1.08171 192 188 174
0.10719 0.46023 -1.08262 192 186 178
0.10773 0.46078 -1.08252 193 191 177
0.10773 0.46023 -1.08251 195 189 183
0.08213 0.45636 -1.07429 119 111 98
0.08163 0.45585 -1.07439 129 117 108
0.08261 0.45691 -1.07651 101 96 87
0.08312 0.45640 -1.07639 100 94 87
0.08412 0.45786 -1.08013 103 93 96
0.08361 0.45733 -1.08024 99 94 89
0.08464 0.45835 -1.08208 124 114 110
0.08517 0.45782 -1.08196 138 129 116
0.08624 0.45922 -1.08540 136 125 115
0.08571 0.45868 -1.08550 135 123 114
0.08679 0.45950 -1.08646 150 138 127
0.08733 0.45896 -1.08633 157 149 133
0.09816 0.45817 -1.07831 160 158 148
0.09764 0.45870 -1.07843 161 156 140
0.09764 0.45817 -1.07842 158 157 152
0.09764 0.45764 -1.07841 159 154 143
0.09816 0.45764 -1.07830 162 157 143
0.09868 0.45817 -1.07819 158 151 136
0.09914 0.45797 -1.07721 125 114 107
0.09985 0.45855 -1.07950 91 72 74
0.10037 0.45855 -1.07939 101 72 78
0.10089 0.45854 -1.07921 122 87 98
0.10099 0.45737 -1.07431 158 132 131
0.10107 0.45621 -1.06939 177 165 155
0.10153 0.45613 -1.06894 179 171 164
0.10203 0.45613 -1.06883 180 174 168
0.10203 0.45562 -1.06882 178 174 164
0.10560 0.45972 -1.08315 158 152 149
0.10595 0.45930 -1.08130 159 158 155
0.10668 0.45973 -1.08294 173 174 164
0.10732 0.45997 -1.08378 187 185 169
0.10786 0.45942 -1.08366 189 188 175
0.10797 0.46019 -1.08456 192 187 173
0.10851 0.46074 -1.08445 195 189 180
0.10851 0.46019 -1.08444 193 190 177
0.10851 0.45964 -1.08443 191 190 176
0.11075 0.46031 -1.08447 187 186 169
0.11020 0.45976 -1.08457 180 177 159
0.11119 0.46012 -1.08358 201 199 183
0.11167 0.46003 -1.08306 209 208 193
0.11210 0.45984 -1.08218 216 215 199
0.11264 0.45929 -1.08205 213 214 200
0.11309 0.45970 -1.08135 213 213 197
0.11969 0.42744 -0.94425 128 123 112
0.11951 0.42726 -0.94428 123 118 106
0.12216 0.42642 -0.93940 145 130 120
0.12232 0.42642 -0.93936 145 133 126
0.12232 0.42625 -0.93936 144 132 124
0.08214 0.45575 -1.07386 119 111 99
0.08164 0.45524 -1.07396 125 117 109
0.08262 0.45625 -1.07588 103 96 90
0.08312 0.45574 -1.07576 101 94 85
0.08413 0.45717 -1.07946 100 94 93
0.08361 0.45665 -1.07956 99 94 82
0.08464 0.45772 -1.08166 124 116 108
0.08624 0.45857 -1.08491 137 125 120
0.08571 0.45803 -1.08502 135 125 113
0.08678 0.45883 -1.08590 153 140 131
0.08732 0.45829 -1.08578 156 147 134
0.09865 0.45753 -1.07770 159 152 134
0.09813 0.45700 -1.07781 160 157 137
0.09909 0.45729 -1.07659 126 114 100
0.09978 0.45782 -1.07867 89 69 64
0.10030 0.45782 -1.07856 101 71 75
0.10082 0.45782 -1.07845 122 87 92
0.10098 0.45548 -1.06845 177 165 154
0.10148 0.45497 -1.06833 175 170 157
0.10145 0.45540 -1.06800 175 171 158
0.10194 0.45489 -1.06788 178 172 159
0.10502 0.45907 -1.08283 132 130 119
0.10536 0.45865 -1.08096 124 118 118
0.10594 0.45874 -1.08120 131 126 125
0.10660 0.45902 -1.08223 156 155 146
0.11076 0.45979 -1.08457 189 185 167
0.11022 0.45923 -1.08468 178 176 156
0.11116 0.45953 -1.08337 202 196 180
0.11156 0.45928 -1.08222 210 206 190
0.11209 0.45873 -1.08209 213 212 199
0.11197 0.45907 -1.08124 215 213 198
0.11251 0.45852 -1.08111 213 211 197
0.11291 0.45886 -1.08012 212 213 198
0.11291 0.45831 -1.08011 212 211 197
0.11339 0.45877 -1.07964 204 206 188
0.11983 0.42725 -0.94414 138 130 121
0.08118 0.45469 -1.07170 114 104 98
0.08069 0.45519 -1.07182 111 98 91
0.08069 0.45469 -1.07181 112 100 97
0.08069 0.45419 -1.07180 109 102 92
0.08214 0.45508 -1.07317 118 112 101
0.08262 0.45554 -1.07502 104 97 89
0.08313 0.45503 -1.07490 99 94 90
0.08412 0.45674 -1.07985 100 96 88
0.08361 0.45621 -1.07995 97 94 87
0.08464 0.45723 -1.08183 121 117 103
0.08516 0.45670 -1.08171 140 128 114
0.08517 0.45765 -1.08354 137 130 114
0.08624 0.45800 -1.08477 135 125 112
0.08678 0.45822 -1.08562 151 139 127
0.08731 0.45768 -1.08550 156 146 134
0.09860 0.45687 -1.07712 155 152 130
0.09809 0.45634 -1.07722 160 155 142
0.09905 0.45664 -1.07604 127 117 102
0.09974 0.45718 -1.07821 91 71 63
0.10026 0.45718 -1.07810 101 67 64
0.10078 0.45718 -1.07799 124 86 84
0.10086 0.45464 -1.06705 175 166 154
0.10135 0.45415 -1.06694 175 169 160
0.10481 0.45805 -1.08082 117 111 103
0.10534 0.45751 -1.08070 107 96 89
0.10532 0.45802 -1.08056 105 97 96
0.10587 0.45806 -1.08059 115 106 106
0.10659 0.45846 -1.08219 148 140 141
0.11076 0.45923 -1.08456 186 181 161
0.11022 0.45868 -1.08467 176 175 162
0.11105 0.45878 -1.08256 201 195 178
0.11144 0.45852 -1.08135 207 205 191
0.11197 0.45798 -1.08122 212 214 198
0.11319 0.45790 -1.07827 204 204 190
0.11368 0.45784 -1.07791 195 194 179
0.11417 0.45779 -1.07758 192 190 174
0.11471 0.45781 -1.07753 185 185 167
0.11524 0.45727 -1.07740 178 175 164
0.11982 0.42706 -0.94413 137 129 114
0.12000 0.42689 -0.94409 144 134 118
0.08118 0.45421 -1.07177 112 104 96
0.08068 0.45371 -1.07186 109 105 91
0.08166 0.45444 -1.07265 125 118 106
0.08214 0.45462 -1.07335 118 114 101
0.08262 0.45502 -1.07497 102 98 93
0.08313 0.45451 -1.07486 97 96 86
0.08412 0.45622 -1.07987 98 95 91
0.08361 0.45570 -1.07998 99 95 86
0.08464 0.45674 -1.08202 121 115 107
0.08569 0.45696 -1.08273 134 123 107
0.08569 0.45643 -1.08272 134 125 104
0.08623 0.45729 -1.08405 134 123 107
0.08677 0.45758 -1.08519 148 138 124
0.09863 0.45642 -1.07746 158 150 133
0.09811 0.45589 -1.07756 160 151 144
0.09902 0.45602 -1.07564 126 116 101
0.09972 0.45660 -1.07798 92 73 65
0.10024 0.45660 -1.07786 98 66 62
0.10076 0.45660 -1.07775 124 87 83
0.10089 0.45423 -1.06742 176 164 155
0.10480 0.45750 -1.08074 116 110 101
0.10533 0.45696 -1.08062 108 95 93
0.10586 0.45750 -1.08052 117 103 101
0.10666 0.45806 -1.08279 145 137 133
0.10996 0.45921 -1.08703 189 185 168
0.10941 0.45977 -1.08715 193 190 172
0.10941 0.45921 -1.08714 189 189 172
0.11050 0.45865 -1.08690 177 173 162
0.11081 0.45877 -1.08492 181 179 167
0.11101 0.45817 -1.08225 199 194 179
0.11140 0.45791 -1.08106 209 205 189
0.11193 0.45737 -1.08094 212 211 197
0.11268 0.45740 -1.07855 210 212 196
0.11216 0.45740 -1.07866 211 213 197
0.11215 0.45686 -1.07865 211 210 196
0.11311 0.45723 -1.07773 203 204 191
0.11362 0.45722 -1.07753 196 196 184
0.11412 0.45718 -1.07725 190 190 179
0.11459 0.45710 -1.07678 184 182 171
0.12003 0.42698 -0.94447 137 130 109
0.12021 0.42680 -0.94443 145 136 117
0.08118 0.45365 -1.07151 111 105 94
0.08069 0.45315 -1.07160 110 107 92
0.08166 0.45389 -1.07245 125 117 103
0.08214 0.45409 -1.07321 120 114 99
0.08263 0.45446 -1.07474 100 99 89
0.08313 0.45395 -1.07462 99 94 85
0.08412 0.45580 -1.08030 100 94 90
0.08360 0.45527 -1.08040 100 95 82
0.08464 0.45630 -1.08239 120 111 105
0.08517 0.45652 -1.08324 140 129 114
0.08569 0.45599 -1.08312 133 127 106
0.08623 0.45684 -1.08442 134 125 108
0.08677 0.45701 -1.08505 146 137 123
0.08730 0.45647 -1.08492 156 145 132
0.08731 0.45708 -1.08522 157 146 131
0.08784 0.45654 -1.08510 154 142 129
0.09868 0.45607 -1.07819 156 146 135
0.09900 0.45544 -1.07537 128 115 103
0.09975 0.45613 -1.07823 93 73 67
0.10027 0.45613 -1.07812 101 70 67
0.10079 0.45613 -1.07801 123 82 81
0.10093 0.45385 -1.06791 174 161 156
0.10149 0.45401 -1.06849 175 165 162
0.10199 0.45350 -1.06837 177 168 160
0.10481 0.45697 -1.08080 115 108 102
0.10587 0.45697 -1.08057 117 103 100
0.10671 0.45763 -1.08326 144 136 134
0.11001 0.45874 -1.08742 187 181 164
0.11056 0.45818 -1.08730 176 173 159
0.11063 0.45791 -1.08360 182 179 173
0.11094 0.45750 -1.08173 199 194 184
0.11128 0.45717 -1.08022 207 206 192
0.11181 0.45663 -1.08009 210 209 197
0.11259 0.45671 -1.07787 208 209 193
0.11206 0.45617 -1.07797 209 209 197
0.11258 0.45617 -1.07786 207 210 196
0.11302 0.45656 -1.07714 200 202 185
0.11354 0.45655 -1.07698 193 195 180
0.11405 0.45653 -1.07677 189 189 180
0.11451 0.45643 -1.07623 183 181 174
0.11502 0.45642 -1.07607 175 173 162
0.11556 0.45644 -1.07603 178 178 162
0.11607 0.45642 -1.07584 186 188 170
0.11659 0.45589 -1.07572 189 187 171
0.12029 0.42691 -0.94489 139 133 110
0.12046 0.42673 -0.94485 144 136 118
0.08118 0.45312 -1.07136 108 108 92
0.08069 0.45262 -1.07146 112 107 92
0.08166 0.45337 -1.07239 122 118 99
0.08214 0.45358 -1.07320 119 114 95
0.08262 0.45396 -1.07477 102 98 87
0.08313 0.45345 -1.07465 98 94 88
0.08412 0.45546 -1.08113 99 96 86
0.08360 0.45493 -1.08124 96 97 87
0.08464 0.45592 -1.08306 118 113 103
0.08517 0.45605 -1.08352 139 131 116
0.08570 0.45551 -1.08340 134 128 108
0.08624 0.45636 -1.08466 133 127 111
0.08677 0.45651 -1.08521 145 137 123
0.08730 0.45597 -1.08509 156 145 131
0.09814 0.45545 -1.07790 161 154 147
0.09762 0.45597 -1.07802 159 152 147
0.09762 0.45545 -1.07801 161 152 148
0.09762 0.45492 -1.07801 158 153 142
0.09813 0.45492 -1.07789 160 157 143
0.09865 0.45545 -1.07779 158 146 138
0.09912 0.45528 -1.07694 128 115 106
0.09985 0.45589 -1.07949 93 71 75
0.10037 0.45589 -1.07938 101 66 78
0.10089 0.45589 -1.07927 124 82 90
0.10098 0.45347 -1.06847 177 161 152
0.10148 0.45297 -1.06836 173 165 155
0.10155 0.45365 -1.06912 174 168 157
0.10205 0.45314 -1.06900 177 168 159
0.10483 0.45648 -1.08099 114 107 103
0.10536 0.45648 -1.08088 104 94 90
0.10589 0.45648 -1.08076 112 101 101
0.10682 0.45729 -1.08415 142 134 133
0.10997 0.45812 -1.08716 185 182 166
0.10942 0.45756 -1.08727 189 185 171
0.11052 0.45757 -1.08703 175 171 153
0.11078 0.45761 -1.08468 182 180 167
0.11099 0.45705 -1.08215 196 195 181
0.11139 0.45681 -1.08099 205 205 192
0.11295 0.45592 -1.07665 201 203 187
0.11347 0.45591 -1.07649 193 195 177
0.11396 0.45586 -1.07619 188 189 173
0.11440 0.45574 -1.07555 179 178 168
0.11490 0.45571 -1.07527 169 166 163
0.11543 0.45572 -1.07521 175 172 165
0.11596 0.45574 -1.07518 186 183 169
0.11648 0.45521 -1.07505 189 190 176
0.12042 0.42678 -0.94512 140 134 114
0.12060 0.42660 -0.94508 143 135 123
0.08117 0.45272 -1.07182 109 107 97
0.08068 0.45222 -1.07191 110 105 90
0.08165 0.45298 -1.07286 122 121 108
0.08214 0.45319 -1.07370 119 117 102
0.08262 0.45355 -1.07523 104 97 89
0.08312 0.45304 -1.07511 99 93 91
0.08412 0.45504 -1.08162 97 97 86
0.08360 0.45451 -1.08172 98 96 89
0.08464 0.45549 -1.08352 116 114 98
0.08517 0.45562 -1.08400 137 132 110
0.08570 0.45509 -1.08388 134 128 115
0.08624 0.45593 -1.08514 134 129 112
0.08678 0.45607 -1.08564 145 138 122
0.08731 0.45553 -1.08552 156 147 127
0.09864 0.45489 -1.07764 157 150 135
0.09812 0.45436 -1.07774 158 154 139
0.09913 0.45481 -1.07717 128 116 105
0.09991 0.45555 -1.08035 90 68 68
0.10044 0.45555 -1.08024 101 64 70
0.10097 0.45555 -1.08012 125 80 88
0.10104 0.45310 -1.06903 175 162 152
0.10153 0.45259 -1.06892 173 167 152
0.10491 0.45611 -1.08175 125 119 115
0.10539 0.45601 -1.08119 112 103 101
0.10592 0.45601 -1.08108 119 108 110
0.10666 0.45642 -1.08275 150 139 136
0.11071 0.45694 -1.08416 182 176 160
0.11017 0.45638 -1.08426 171 171 153
0.11095 0.45643 -1.08182 195 191 178
0.11139 0.45627 -1.08099 202 202 189
0.11182 0.45610 -1.08012 209 210 196
0.11235 0.45610 -1.08001 208 209 193
0.11235 0.45556 -1.08000 206 209 189
0.11434 0.45512 -1.07516 173 170 157
0.11486 0.45460 -1.07504 159 153 140
0.11477 0.45499 -1.07448 159 157 150
0.11532 0.45503 -1.07453 169 166 163
0.11585 0.45505 -1.07450 184 183 175
0.11637 0.45453 -1.07438 188 188 178
0.12026 0.42661 -0.94519 132 125 114
0.12049 0.42663 -0.94523 140 134 119
0.12067 0.42645 -0.94519 142 133 124
0.08117 0.45231 -1.07222 112 104 94
0.08067 0.45180 -1.07232 111 104 91
0.08164 0.45266 -1.07373 124 117 108
0.08213 0.45284 -1.07443 121 117 109
0.08261 0.45323 -1.07612 105 98 95
0.08311 0.45272 -1.07600 99 94 95
0.08412 0.45440 -1.08111 97 94 86
0.08360 0.45387 -1.08122 101 95 92
0.08464 0.45487 -1.08311 116 111 97
0.08517 0.45510 -1.08404 134 129 113
0.08570 0.45456 -1.08392 136 129 108
0.08624 0.45540 -1.08517 133 128 114
0.08624 0.45485 -1.08516 134 127 108
0.08678 0.45554 -1.08569 144 137 117
0.09862 0.45430 -1.07738 156 149 137
0.09811 0.45378 -1.07748 160 152 141
0.09913 0.45426 -1.07707 125 117 113
0.09993 0.45505 -1.08049 90 72 78
0.10045 0.45505 -1.08038 98 65 70
0.10098 0.45505 -1.08026 122 83 82
0.10132 0.45457 -1.07799 156 131 115
0.10112 0.45280 -1.06995 176 165 142
0.10162 0.45229 -1.06983 173 164 155
0.10597 0.45558 -1.08153 153 142 135
0.10856 0.45746 -1.08954 183 179 170
0.10912 0.45690 -1.08941 189 181 171
0.11070 0.45638 -1.08412 179 175 156
0.11016 0.45583 -1.08423 171 169 155
0.11098 0.45593 -1.08200 194 191 173
0.11140 0.45574 -1.08103 201 202 186
0.11193 0.45519 -1.08090 207 207 190
0.11182 0.45556 -1.08015 207 208 192
0.11236 0.45502 -1.08003 206 208 189
0.11429 0.45453 -1.07487 171 165 149
0.11526 0.45443 -1.07418 169 168 154
0.11577 0.45441 -1.07399 185 185 173
0.11628 0.45389 -1.07387 189 188 172
0.12034 0.42646 -0.94530 132 126 114
0.08115 0.45203 -1.07326 112 104 90
0.08065 0.45152 -1.07336 112 105 90
0.08162 0.45235 -1.07464 124 116 103
0.08212 0.45247 -1.07509 123 118 108
0.08260 0.45291 -1.07699 104 101 99
0.08311 0.45239 -1.07688 99 96 87
0.08412 0.45389 -1.08116 99 93 92
0.08360 0.45336 -1.08127 100 97 84
0.08464 0.45427 -1.08283 119 109 101
0.08517 0.45458 -1.08415 138 128 110
0.08570 0.45405 -1.08403 137 132 109
0.08678 0.45496 -1.08554 145 134 117
0.08732 0.45508 -1.08594 158 146 129
0.08785 0.45562 -1.08583 154 144 128
0.08785 0.45508 -1.08582 155 145 132
0.08785 0.45453 -1.08581 152 146 136
0.09861 0.45374 -1.07719 155 151 136
0.09809 0.45321 -1.07729 160 155 143
0.09916 0.45383 -1.07748 123 116 107
0.09984 0.45427 -1.07936 92 73 75
0.10036 0.45427 -1.07925 98 66 67
0.10088 0.45427 -1.07914 122 85 82
0.10134 0.45409 -1.07823 156 127 121
0.10115 0.45237 -1.07028 171 159 148
0.10971 0.45598 -1.08505 182 177 164
0.10916 0.45653 -1.08518 188 182 177
0.10916 0.45598 -1.08517 188 181 171
0.10916 0.45542 -1.08516 187 183 169
0.11054 0.45555 -1.08289 175 172 159
0.11095 0.45534 -1.08179 191 188 174
0.11137 0.45516 -1.08087 200 199 184
0.11191 0.45462 -1.08075 206 207 192
0.11431 0.45403 -1.07498 171 171 154
0.11474 0.45390 -1.07429 161 160 145
0.11519 0.45381 -1.07378 172 171 155
0.11569 0.45378 -1.07353 186 186 169
0.11621 0.45326 -1.07341 187 189 169
0.08114 0.45161 -1.07363 114 104 89
0.08064 0.45110 -1.07372 112 108 90
0.08162 0.45193 -1.07502 125 116 99
0.08412 0.45335 -1.08111 99 96 89
0.08360 0.45282 -1.08122 99 97 81
0.08464 0.45358 -1.08209 118 110 102
0.08517 0.45391 -1.08348 137 129 111
0.08569 0.45337 -1.08336 140 134 116
0.08623 0.45413 -1.08429 135 130 110
0.08623 0.45359 -1.08428 135 132 116
0.08677 0.45428 -1.08485 145 138 121
0.08731 0.45439 -1.08525 155 149 134
0.08784 0.45385 -1.08513 154 143 133
0.09861 0.45321 -1.07719 153 149 138
0.09809 0.45268 -1.07729 159 153 143
0.09919 0.45339 -1.07790 123 112 106
0.10121 0.45200 -1.07090 171 160 143
0.10166 0.45189 -1.07031 172 165 149
0.10216 0.45240 -1.07021 172 166 155
0.10216 0.45189 -1.07020 175 169 152
0.10216 0.45138 -1.07020 173 168 153
0.10955 0.45516 -1.08381 181 178 163
0.10901 0.45460 -1.08391 187 179 169
0.10996 0.45494 -1.08269 170 168 153
0.11043 0.45483 -1.08206 174 171 160
0.11097 0.45482 -1.08192 188 188 172
0.11138 0.45463 -1.08092 199 200 183
0.11427 0.45344 -1.07471 177 175 158
0.11469 0.45330 -1.07394 168 166 152
0.11513 0.45320 -1.07338 176 172 158
0.11563 0.45318 -1.07316 186 184 168
0.11614 0.45265 -1.07304 186 187 170
0.13145 0.43326 -0.97633 101 99 96
0.13171 0.43353 -0.97628 101 98 95
0.13171 0.43326 -0.97627 101 99 99
0.13171 0.43299 -0.97627 103 100 97
0.08113 0.45122 -1.07422 113 108 92
0.08063 0.45072 -1.07432 114 109 89
0.08161 0.45149 -1.07534 123 115 101
0.08412 0.45287 -1.08136 99 96 80
0.08464 0.45295 -1.08159 116 111 97
0.08516 0.45316 -1.08249 138 131 115
0.08569 0.45263 -1.08237 143 132 117
0.08676 0.45360 -1.08421 144 138 123
0.08623 0.45306 -1.08432 139 132 114
0.08729 0.45306 -1.08409 156 147 131
0.08729 0.45357 -1.08396 155 146 132
0.08781 0.45304 -1.08384 152 144 130
0.09859 0.45263 -1.07693 155 149 137
0.09807 0.45210 -1.07703 158 155 149
0.09925 0.45303 -1.07868 126 116 107
0.10150 0.45344 -1.08012 153 129 116
0.10123 0.45153 -1.07112 174 159 143
0.10173 0.45102 -1.07100 168 167 151
0.10168 0.45143 -1.07053 173 167 148
0.10938 0.45432 -1.08247 179 173 164
0.10884 0.45377 -1.08257 185 179 169
0.10992 0.45377 -1.08234 162 164 149
0.10977 0.45407 -1.08122 169 163 155
0.11022 0.45393 -1.08043 174 171 154
0.11075 0.45392 -1.08029 187 185 163
0.11120 0.45379 -1.07957 197 199 176
0.11431 0.45297 -1.07498 177 179 162
0.11483 0.45244 -1.07485 171 173 156
0.11471 0.45281 -1.07412 171 170 157
0.11516 0.45271 -1.07354 176 173 163
0.11563 0.45265 -1.07317 185 183 171
0.11615 0.45213 -1.07305 185 188 169
0.13119 0.43287 -0.97584 102 98 92
0.13146 0.43260 -0.97578 104 101 90
0.08110 0.45105 -1.07583 114 108 94
0.08060 0.45054 -1.07593 118 110 97
0.08159 0.45120 -1.07645 122 116 106
0.08411 0.45247 -1.08193 102 97 86
0.08464 0.45247 -1.08184 118 111 101
0.08516 0.45267 -1.08267 141 130 117
0.08569 0.45214 -1.08255 142 137 118
0.08675 0.45287 -1.08330 145 138 121
0.09922 0.45243 -1.07833 124 116 103
0.10150 0.45290 -1.08006 155 129 124
0.10919 0.45345 -1.08096 176 174 162
0.10972 0.45291 -1.08084 163 163 151
0.11006 0.45313 -1.07924 170 170 154
0.11060 0.45315 -1.07920 187 183 163
0.11107 0.45306 -1.07867 199 195 171
0.11292 0.45268 -1.07645 199 195 181
0.11335 0.45255 -1.07569 192 190 175
0.11383 0.45249 -1.07533 186 187 171
0.11430 0.45243 -1.07489 178 180 163
0.11482 0.45190 -1.07477 170 173 159
0.11517 0.45220 -1.07363 176 177 160
0.11564 0.45214 -1.07322 184 186 168
0.11616 0.45162 -1.07310 187 183 169
0.12007 0.42562 -0.94484 135 128 116
0.12024 0.42544 -0.94480 143 133 118
0.08013 0.45021 -1.07444 119 111 98
0.08108 0.45073 -1.07674 116 108 97
0.08158 0.45088 -1.07735 123 116 107
0.08411 0.45198 -1.08216 113 108 100
0.08464 0.45188 -1.08152 127 121 117
0.08516 0.45135 -1.08140 145 138 122
0.08516 0.45202 -1.08210 143 136 125
0.08621 0.45207 -1.08209 141 135 114
0.08726 0.45213 -1.08215 157 147 132
0.08778 0.45213 -1.08204 154 147 137
0.08778 0.45160 -1.08203 150 149 143
0.09810 0.45165 -1.07734 158 155 149
0.09758 0.45217 -1.07746 159 155 145
0.09758 0.45164 -1.07745 159 156 149
0.09758 0.45112 -1.07744 155 153 146
0.09809 0.45112 -1.07733 155 154 145
0.09861 0.45165 -1.07723 154 150 136
0.09924 0.45196 -1.07860 124 118 106
0.10856 0.45273 -1.08026 182 181 163
0.10803 0.45327 -1.08039 184 179 172
0.10803 0.45273 -1.08038 184 184 167
0.10802 0.45219 -1.08037 182 180 169
0.10903 0.45264 -1.07972 175 173 157
0.10956 0.45211 -1.07959 161 161 153
0.10991 0.45236 -1.07814 169 168 157
0.11285 0.45204 -1.07593 197 194 176
0.11329 0.45194 -1.07533 192 190 171
0.11380 0.45193 -1.07515 187 187 169
0.11429 0.45188 -1.07482 178 180 165
0.11481 0.45136 -1.07470 170 172 156
0.11511 0.45159 -1.07323 175 177 162
0.11559 0.45155 -1.07292 184 184 170
0.11611 0.45103 -1.07280 185 186 166
0.11998 0.42541 -0.94470 137 129 115
0.12016 0.42523 -0.94466 143 132 117
0.08012 0.44973 -1.07456 122 114 102
0.08060 0.45000 -1.07578 121 113 98
0.08108 0.45022 -1.07678 118 111 96
0.08158 0.45036 -1.07735 126 117 108
0.08412 0.45114 -1.08064 133 128 112
0.08463 0.45110 -1.08031 139 132 119
0.08567 0.45126 -1.08083 144 137 119
0.08725 0.45145 -1.08143 155 151 139
0.08777 0.45092 -1.08131 151 150 136
0.09862 0.45115 -1.07739 154 151 140
0.09811 0.45063 -1.07749 160 154 149
0.09924 0.45141 -1.07852 126 121 106
0.10137 0.45153 -1.07862 155 128 122
0.10845 0.45201 -1.07937 179 180 167
0.10792 0.45147 -1.07948 180 178 166
0.10890 0.45189 -1.07867 171 172 160
0.10943 0.45135 -1.07854 161 164 148
0.10977 0.45160 -1.07703 172 165 161
0.11284 0.45150 -1.07587 194 192 179
0.11336 0.45097 -1.07574 186 187 171
0.11332 0.45145 -1.07549 190 188 175
0.11386 0.45147 -1.07548 184 185 169
0.11433 0.45140 -1.07503 175 178 159
0.11485 0.45087 -1.07491 166 167 155
0.11517 0.45115 -1.07360 174 177 162
0.11569 0.45062 -1.07348 177 179 168
0.11565 0.45111 -1.07328 181 183 165
0.11617 0.45058 -1.07316 182 184 168
0.12793 0.43096 -0.97115 142 135 122
0.12767 0.43070 -0.97120 147 139 132
0.07964 0.44906 -1.07385 115 107 94
0.08013 0.44914 -1.07413 124 117 102
0.08060 0.44943 -1.07550 124 116 101
0.08109 0.44960 -1.07625 121 113 100
0.08158 0.44978 -1.07705 129 119 111
0.08258 0.45020 -1.07888 141 132 122
0.08412 0.45045 -1.07982 143 140 123
0.08463 0.45053 -1.08007 146 143 124
0.08515 0.45068 -1.08070 150 144 123
0.08567 0.45015 -1.08058 155 151 129
0.08567 0.45070 -1.08069 152 145 124
0.08619 0.45017 -1.08057 157 151 133
0.08620 0.45082 -1.08115 154 147 128
0.08672 0.45029 -1.08103 158 151 136
0.09863 0.45065 -1.07751 153 149 136
0.09925 0.45090 -1.07862 126 118 105
0.10831 0.45125 -1.07829 178 179 163
0.10779 0.45071 -1.07840 181 178 160
0.10831 0.45072 -1.07828 181 176 160
0.11278 0.45089 -1.07546 181 178 164
0.11380 0.45086 -1.07508 182 185 170
0.11430 0.45083 -1.07485 173 175 162
0.11482 0.45031 -1.07472 164 166 155
0.12781 0.43065 -0.97093 143 134 126
0.12756 0.43040 -0.97098 149 137 132
0.07865 0.44853 -1.07399 110 102 93
0.07914 0.44859 -1.07416 116 108 95
0.07967 0.44837 -1.07291 126 117 102
0.08015 0.44845 -1.07321 128 120 103
0.08062 0.44876 -1.07467 126 119 103
0.08110 0.44898 -1.07568 126 119 104
0.08159 0.44911 -1.07623 134 126 116
0.08412 0.44981 -1.07922 152 145 133
0.08463 0.44929 -1.07910 159 149 134
0.08463 0.44992 -1.07963 155 145 130
0.08515 0.44939 -1.07951 159 150 130
0.08515 0.45004 -1.08012 156 148 129
0.08567 0.44951 -1.08000 158 150 129
0.09816 0.45026 -1.07827 160 151 147
0.09764 0.45026 -1.07838 158 148 145
0.09764 0.44973 -1.07837 156 150 141
0.09868 0.45026 -1.07816 153 147 138
0.09924 0.45035 -1.07848 127 117 108
0.09985 0.45059 -1.07960 90 70 67
0.10038 0.45060 -1.07948 97 66 65
0.10090 0.45060 -1.07937 118 85 90
0.08064 0.44805 -1.07365 133 125 111
0.08114 0.44755 -1.07354 150 142 126
0.08112 0.44820 -1.07430 136 130 117
0.08162 0.44769 -1.07419 156 146 130
0.08162 0.44830 -1.07468 145 137 125
0.08212 0.44779 -1.07456 160 148 133
0.08210 0.44852 -1.07574 154 145 133
0.08261 0.44801 -1.07562 152 144 128
0.08259 0.44890 -1.07755 148 139 129
0.08310 0.44838 -1.07743 142 140 126
0.08361 0.44897 -1.07771 149 145 135
0.08361 0.44845 -1.07770 145 143 129
0.08412 0.44846 -1.07759 155 149 132
0.09819 0.44981 -1.07869 156 151 136
0.09767 0.44928 -1.07879 157 150 141
0.09819 0.44928 -1.07868 156 148 137
0.09871 0.44981 -1.07858 154 149 132
0.09928 0.44993 -1.07905 127 119 107
0.09985 0.45006 -1.07958 89 76 70
0.10038 0.45006 -1.07947 96 68 73
0.10090 0.45006 -1.07935 116 81 92
0.10104 0.44919 -1.07482 154 127 126
0.10130 0.44863 -1.07191 167 157 140
0.10159 0.44818 -1.06952 168 165 146
0.10209 0.44767 -1.06941 169 169 151
0.10208 0.44816 -1.06931 168 170 151
0.10258 0.44816 -1.06921 171 172 158
0.10258 0.44765 -1.06920 173 169 156
0.12060 0.42478 -0.94504 140 130 120
0.12042 0.42460 -0.94508 139 131 116
0.08514 0.44879 -1.07908 158 151 136
0.08463 0.44879 -1.07919 158 151 133
0.08566 0.44889 -1.07950 159 152 136
0.08618 0.44942 -1.07940 156 150 132
0.08618 0.44837 -1.07938 163 156 153
0.08618 0.44893 -1.07958 159 154 137
0.08670 0.44946 -1.07948 156 150 136
0.08669 0.44886 -1.07913 158 153 137
0.08721 0.44939 -1.07903 155 148 132
0.08721 0.44883 -1.07884 155 149 132
0.08772 0.44936 -1.07874 154 146 133
0.08772 0.44883 -1.07873 151 144 128
0.09872 0.44930 -1.07867 155 148 131
0.09820 0.44877 -1.07878 157 153 140
0.09920 0.44919 -1.07798 125 118 104
0.09980 0.44940 -1.07895 90 73 68
0.10033 0.44941 -1.07884 98 67 73
0.10085 0.44941 -1.07873 116 83 91
0.10090 0.44835 -1.07320 152 130 123
0.10116 0.44783 -1.07044 167 158 141
0.10152 0.44753 -1.06881 168 165 144
0.10202 0.44703 -1.06870 167 168 154
0.12095 0.42466 -0.94528 151 145 132
0.12113 0.42448 -0.94524 162 153 139
0.08463 0.44813 -1.07847 160 153 136
0.08411 0.44760 -1.07857 161 155 140
0.08463 0.44761 -1.07846 163 157 140
0.08514 0.44761 -1.07835 163 158 144
0.08514 0.44828 -1.07915 162 154 143
0.08566 0.44776 -1.07903 164 157 146
0.08566 0.44840 -1.07965 163 155 151
0.08618 0.44787 -1.07953 164 156 145
0.08669 0.44820 -1.07840 162 155 145
0.08668 0.44768 -1.07839 163 157 144
0.08719 0.44814 -1.07794 157 150 136
0.08771 0.44762 -1.07782 153 148 132
0.08770 0.44810 -1.07760 151 147 130
0.08822 0.44862 -1.07750 152 145 132
0.08822 0.44810 -1.07749 152 145 128
0.08822 0.44758 -1.07748 153 147 131
0.09876 0.44888 -1.07920 153 148 136
0.09824 0.44834 -1.07931 157 152 138
0.09921 0.44869 -1.07810 126 118 106
0.09979 0.44884 -1.07880 90 72 62
0.10031 0.44885 -1.07868 98 66 70
0.10084 0.44885 -1.07857 116 82 91
0.10081 0.44763 -1.07216 150 127 124
0.10114 0.44727 -1.07018 166 158 143
0.10155 0.44708 -1.06907 165 165 149
0.10779 0.44829 -1.07405 177 178 162
0.10727 0.44881 -1.07417 180 175 165
0.10727 0.44829 -1.07416 176 178 166
0.10727 0.44777 -1.07415 176 174 163
0.10779 0.44777 -1.07404 178 175 160
0.08719 0.44762 -1.07793 157 151 136
0.08771 0.44709 -1.07781 153 148 129
0.09875 0.44833 -1.07914 152 147 132
0.09823 0.44780 -1.07924 154 153 135
0.09920 0.44815 -1.07803 127 118 105
0.09977 0.44825 -1.07846 90 72 64
0.10029 0.44825 -1.07835 96 65 60
0.10081 0.44825 -1.07824 118 84 77
0.10071 0.44692 -1.07112 152 128 117
0.10117 0.44681 -1.07044 165 154 138
0.10158 0.44664 -1.06943 167 160 146
0.10208 0.44663 -1.06927 167 166 154
0.10258 0.44714 -1.06917 169 168 158
0.10257 0.44663 -1.06916 168 170 158
0.10257 0.44613 -1.06915 170 170 159
0.10815 0.44753 -1.07271 171 172 155
0.10764 0.44701 -1.07281 174 176 162
0.10866 0.44701 -1.07259 158 160 147
0.09873 0.44775 -1.07884 152 151 126
0.09821 0.44721 -1.07894 151 151 132
0.09918 0.44757 -1.07778 127 118 100
0.09971 0.44759 -1.07776 92 71 65
0.10023 0.44759 -1.07764 96 63 63
0.10075 0.44759 -1.07753 117 80 83
0.10066 0.44629 -1.07050 149 127 121
0.10807 0.44690 -1.07210 169 170 156
0.10858 0.44638 -1.07198 160 162 149
0.10881 0.44651 -1.06979 168 168 153
0.10914 0.44626 -1.06839 182 178 163
0.10973 0.44570 -1.06521 184 180 162
0.11175 0.44578 -1.06517 91 92 85
0.11228 0.44582 -1.06529 81 83 80
0.09871 0.44717 -1.07857 151 149 130
0.09819 0.44664 -1.07867 152 149 131
0.09916 0.44699 -1.07746 127 116 107
0.09964 0.44690 -1.07689 93 73 73
0.10016 0.44690 -1.07678 96 64 67
0.10068 0.44690 -1.07667 119 79 89
0.10057 0.44559 -1.06945 153 124 122
0.10751 0.44630 -1.07177 172 174 158
0.10700 0.44682 -1.07188 173 176 162
0.10700 0.44630 -1.07188 174 177 160
0.10700 0.44578 -1.07187 173 173 154
0.10793 0.44617 -1.07096 168 170 155
0.10843 0.44566 -1.07085 159 158 141
0.10864 0.44575 -1.06850 168 168 154
0.10895 0.44549 -1.06699 178 178 159
0.10923 0.44519 -1.06526 185 187 166
0.10972 0.44469 -1.06514 191 192 174
0.10950 0.44490 -1.06359 189 190 169
0.10982 0.44468 -1.06232 181 180 161
0.11180 0.44534 -1.06547 93 98 91
0.11232 0.44537 -1.06556 83 89 89
0.09870 0.44660 -1.07837 148 146 122
0.09818 0.44607 -1.07847 155 148 131
0.09923 0.44663 -1.07838 124 117 101
0.09958 0.44624 -1.07612 89 71 68
0.10009 0.44624 -1.07601 95 65 64
0.10061 0.44624 -1.07590 116 83 82
0.10055 0.44506 -1.06929 147 126 120
0.10177 0.44549 -1.07141 161 157 143
0.10227 0.44497 -1.07130 161 163 147
0.10227 0.44549 -1.07131 165 162 148
0.10278 0.44498 -1.07119 165 165 145
0.10739 0.44561 -1.07080 173 172 150
0.10688 0.44509 -1.07090 171 173 161
0.10779 0.44545 -1.06985 168 166 148
0.10829 0.44494 -1.06973 161 156 142
0.10878 0.44476 -1.06573 179 178 162
0.10906 0.44447 -1.06407 186 188 169
0.10955 0.44398 -1.06396 191 193 177
0.09866 0.44599 -1.07793 152 143 129
0.09814 0.44546 -1.07803 154 147 136
0.09919 0.44601 -1.07788 125 114 102
0.09949 0.44550 -1.07495 90 71 65
0.10000 0.44551 -1.07484 97 67 66
0.10051 0.44551 -1.07473 115 83 82
0.10054 0.44453 -1.06917 147 126 123
0.10125 0.44495 -1.07137 161 155 145
0.10175 0.44443 -1.07125 159 159 144
0.11262 0.44359 -1.06103 138 136 133
0.09865 0.44544 -1.07778 152 144 133
0.09813 0.44491 -1.07788 152 145 142
0.09916 0.44541 -1.07749 124 113 102
0.09943 0.44487 -1.07428 91 67 63
0.09994 0.44487 -1.07417 96 60 64
0.10045 0.44487 -1.07406 113 79 83
0.10047 0.44388 -1.06837 146 125 121
0.10125 0.44443 -1.07135 162 155 146
0.10175 0.44392 -1.07123 162 158 139
0.11250 0.44296 -1.06029 155 150 141
0.09863 0.44486 -1.07745 153 144 136
0.09811 0.44433 -1.07755 153 146 139
0.09912 0.44479 -1.07697 125 115 106
0.09942 0.44431 -1.07406 88 68 68
0.09993 0.44431 -1.07395 92 59 59
0.10044 0.44431 -1.07385 113 81 73
0.10044 0.44331 -1.06793 145 126 112
0.10112 0.44367 -1.06992 161 155 139
0.11234 0.44229 -1.05925 156 156 140
0.07553 0.44169 -1.06701 119 115 100
0.07505 0.44120 -1.06711 116 111 93
0.08315 0.44233 -1.06910 142 137 125
0.08266 0.44283 -1.06921 143 139 125
0.08266 0.44233 -1.06920 144 139 126
0.08266 0.44184 -1.06919 143 139 126
0.08364 0.44215 -1.06791 153 148 137
0.09860 0.44425 -1.07699 153 146 133
0.09808 0.44372 -1.07709 151 147 138
0.09908 0.44417 -1.07640 124 116 104
0.09938 0.44373 -1.07367 86 72 68
0.09989 0.44373 -1.07356 88 65 61
0.10040 0.44373 -1.07345 108 80 75
0.10036 0.44266 -1.06710 146 123 118
0.08315 0.44178 -1.06875 142 139 128
0.08266 0.44128 -1.06884 143 140 125
0.08364 0.44157 -1.06733 151 147 137
0.08413 0.44149 -1.06674 159 153 140
0.08461 0.44100 -1.06663 160 154 139
0.09857 0.44367 -1.07668 150 142 131
0.09909 0.44368 -1.07659 127 116 103
0.09937 0.44317 -1.07344 85 67 61
0.09987 0.44317 -1.07333 92 66 63
0.10038 0.44317 -1.07322 111 81 78
0.10032 0.44209 -1.06666 146 125 119
0.12720 0.42409 -0.95141 130 119 110
0.12740 0.42429 -0.95137 131 120 105
0.12740 0.42409 -0.95137 130 119 113
0.12740 0.42389 -0.95136 130 118 114
0.07561 0.44046 -1.06542 122 114 99
0.07513 0.43998 -1.06551 117 112 95
0.08315 0.44128 -1.06871 141 138 128
0.08266 0.44078 -1.06881 143 138 122
0.08364 0.44108 -1.06735 151 147 135
0.08413 0.44059 -1.06723 158 150 135
0.08413 0.44100 -1.06673 158 151 139
0.08461 0.44051 -1.06661 161 153 138
0.09800 0.44302 -1.07601 152 147 133
0.09749 0.44354 -1.07613 151 149 138
0.09749 0.44302 -1.07612 153 148 134
0.09749 0.44250 -1.07612 149 144 130
0.09800 0.44250 -1.07601 149 145 128
0.09852 0.44302 -1.07590 148 145 128
0.09905 0.44307 -1.07604 123 113 97
0.09939 0.44270 -1.07369 90 69 62
0.09989 0.44270 -1.07358 92 62 59
0.10040 0.44270 -1.07347 113 83 79
0.10666 0.44154 -1.06491 167 168 152
0.10617 0.44204 -1.06503 170 168 156
0.10617 0.44154 -1.06502 169 170 154
0.10617 0.44104 -1.06501 167 167 151
0.10666 0.44105 -1.06491 166 168 149
0.12668 0.42385 -0.95129 154 146 132
0.12648 0.42405 -0.95134 164 153 137
0.12648 0.42385 -0.95134 162 154 139
0.12648 0.42364 -0.95133 162 155 143
0.12700 0.42388 -0.95144 138 129 118
0.07564 0.43988 -1.06475 121 115 102
0.07517 0.43940 -1.06484 118 112 98
0.08315 0.44073 -1.06837 141 136 121
0.08267 0.44024 -1.06847 145 140 129
0.08364 0.44053 -1.06700 152 147 132
0.08413 0.44004 -1.06689 157 152 134
0.09846 0.44239 -1.07522 150 145 131
0.09795 0.44187 -1.07532 150 145 133
0.09940 0.44220 -1.07382 91 66 62
0.09991 0.44220 -1.07371 94 60 57
0.10042 0.44220 -1.07361 112 80 77
0.10691 0.44074 -1.06291 160 161 143
0.10642 0.44024 -1.06301 165 167 148
0.10739 0.44024 -1.06280 152 153 135
0.10759 0.44038 -1.06051 160 162 145
0.10802 0.44032 -1.06007 171 172 152
0.10843 0.44024 -1.05945 179 178 157
0.12671 0.42366 -0.95135 151 145 132
0.12737 0.42373 -0.95165 125 121 111
0.12757 0.42353 -0.95161 127 122 108
0.07566 0.43933 -1.06427 121 115 104
0.08315 0.44029 -1.06866 142 137 125
0.08266 0.43979 -1.06875 145 141 129
0.08315 0.43979 -1.06865 140 138 127
0.08364 0.44012 -1.06749 151 147 131
0.08412 0.43963 -1.06738 157 150 136
0.09840 0.44173 -1.07435 146 143 132
0.09789 0.44121 -1.07445 148 146 135
0.09887 0.44165 -1.07373 122 113 108
0.09939 0.44168 -1.07377 88 67 61
0.09990 0.44168 -1.07366 93 60 55
0.10041 0.44168 -1.07355 112 80 78
0.10741 0.43967 -1.05913 161 161 144
0.10693 0.43918 -1.05922 154 151 137
0.10783 0.43961 -1.05866 170 169 152
0.10824 0.43954 -1.05812 178 178 162
0.10864 0.43945 -1.05743 184 186 171
0.10911 0.43897 -1.05732 183 186 168
0.12633 0.42340 -0.95110 164 154 145
0.12613 0.42360 -0.95115 163 156 146
0.12613 0.42340 -0.95114 164 156 146
0.12613 0.42320 -0.95114 165 154 140
0.08364 0.43977 -1.06839 150 144 135
0.08315 0.43927 -1.06849 139 137 123
0.08412 0.43927 -1.06828 155 150 134
0.09834 0.44109 -1.07359 145 144 135
0.09783 0.44058 -1.07369 148 143 128
0.09879 0.44097 -1.07269 122 113 107
0.09942 0.44122 -1.07416 89 68 64
0.09993 0.44122 -1.07405 93 60 56
0.10044 0.44122 -1.07394 114 79 75
0.10726 0.43902 -1.05806 160 160 143
0.10679 0.43853 -1.05815 155 151 135
0.10774 0.43854 -1.05795 170 168 152
0.10765 0.43891 -1.05728 170 172 153
0.10806 0.43884 -1.05675 177 179 160
0.10847 0.43878 -1.05626 183 185 167
0.10894 0.43831 -1.05615 184 186 167
0.11207 0.43865 -1.05458 162 163 145
0.11255 0.43866 -1.05454 171 172 161
0.11301 0.43819 -1.05443 171 174 159
0.08363 0.43942 -1.06932 148 145 131
0.08314 0.43892 -1.06942 140 136 120
0.09826 0.44041 -1.07250 148 141 124
0.09776 0.43989 -1.07260 148 141 124
0.09871 0.44029 -1.07160 123 110 96
0.09946 0.44077 -1.07460 89 67 60
0.09997 0.44077 -1.07449 92 60 56
0.10048 0.44077 -1.07438 112 79 75
0.10837 0.43819 -1.05552 185 184 164
0.10883 0.43772 -1.05541 182 184 164
0.11205 0.43815 -1.05442 163 164 151
0.11249 0.43813 -1.05419 171 171 159
0.11295 0.43766 -1.05408 172 174 155
0.08363 0.43907 -1.07034 148 145 127
0.08313 0.43857 -1.07043 141 136 118
0.08412 0.43857 -1.07022 152 151 132
0.08412 0.43900 -1.06978 155 151 133
0.08461 0.43950 -1.06969 159 152 135
0.08461 0.43901 -1.06968 157 152 136
0.08461 0.43851 -1.06967 155 149 135
0.09817 0.43971 -1.07125 144 137 118
0.09767 0.43920 -1.07135 148 142 127
0.09864 0.43965 -1.07076 120 109 93
0.09947 0.44027 -1.07472 88 67 60
0.09998 0.44027 -1.07461 92 61 58
0.10049 0.44027 -1.07450 109 78 72
0.10001 0.43855 -1.06305 140 119 111
0.11117 0.43773 -1.05496 163 163 146
0.11163 0.43726 -1.05485 156 156 142
0.12186 0.42209 -0.94740 147 143 129
0.12167 0.42190 -0.94744 136 133 115
0.08362 0.43874 -1.07149 147 146 124
0.08313 0.43824 -1.07159 138 135 117
0.08412 0.43824 -1.07138 152 149 130
0.09810 0.43906 -1.07034 143 139 119
0.09863 0.43912 -1.07061 120 113 93
0.12248 0.42202 -0.94807 158 156 141
0.12267 0.42183 -0.94803 163 157 140
0.09754 0.43843 -1.06962 145 146 123
0.09705 0.43894 -1.06974 147 142 127
0.09705 0.43843 -1.06973 145 146 126
0.09705 0.43793 -1.06972 146 143 125
0.09754 0.43793 -1.06961 148 142 125
0.09807 0.43848 -1.06984 141 137 114
0.09868 0.43870 -1.07121 123 113 89
0.10107 0.43773 -1.06390 157 151 136
0.10155 0.43724 -1.06379 157 154 149
0.12735 0.42260 -0.95231 141 131 122
0.09804 0.43794 -1.06955 144 137 118
0.09755 0.43743 -1.06965 146 141 125
0.09869 0.43821 -1.07134 121 111 87
0.10115 0.43736 -1.06476 153 150 139
0.12650 0.42228 -0.95170 163 155 138
0.12630 0.42249 -0.95175 163 154 137
0.12630 0.42228 -0.95175 163 155 137
0.12630 0.42208 -0.95174 163 154 140
0.12670 0.42208 -0.95166 152 144 130
0.12760 0.42246 -0.95270 136 130 116
0.12781 0.42225 -0.95266 126 118 110
0.09801 0.43737 -1.06913 142 139 121
0.09752 0.43687 -1.06923 146 141 129
0.09876 0.43783 -1.07227 120 111 95
0.10124 0.43701 -1.06572 153 148 134
0.10173 0.43651 -1.06561 157 152 134
0.12765 0.42227 -0.95278 134 126 115
0.12745 0.42206 -0.95282 150 141 129
0.12786 0.42206 -0.95273 128 117 113
0.08362 0.43671 -1.07132 144 142 134
0.08313 0.43721 -1.07143 136 135 122
0.08313 0.43671 -1.07143 135 134 123
0.08312 0.43621 -1.07142 136 134 123
0.08411 0.43721 -1.07122 151 148 131
0.08411 0.43671 -1.07121 152 147 139
0.09801 0.43686 -1.06907 141 138 123
0.09751 0.43635 -1.06917 146 141 127
0.09888 0.43754 -1.07390 120 110 96
0.10767 0.43608 -1.06108 156 155 135
0.08362 0.43615 -1.07087 144 142 127
0.08313 0.43565 -1.07097 138 135 119
0.09800 0.43634 -1.06895 142 138 119
0.09750 0.43583 -1.06904 145 141 124
0.09888 0.43701 -1.07380 119 111 96
0.09956 0.43730 -1.07584 87 67 59
0.10007 0.43730 -1.07573 89 58 55
0.10059 0.43730 -1.07562 106 73 69
0.10135 0.43618 -1.06693 153 149 132
0.10185 0.43618 -1.06683 156 152 135
0.10185 0.43568 -1.06682 155 151 140
0.10768 0.43561 -1.06116 153 155 137
0.11013 0.43522 -1.05764 170 172 155
0.10966 0.43570 -1.05775 173 176 156
0.10966 0.43522 -1.05775 171 174 159
0.11013 0.43570 -1.05765 170 172 153
0.11053 0.43515 -1.05705 168 170 151
0.11096 0.43511 -1.05668 163 166 148
0.12799 0.42193 -0.95330 131 123 114
0.12820 0.42172 -0.95325 127 122 106
0.08362 0.43561 -1.07060 143 141 124
0.08313 0.43511 -1.07069 138 135 118
0.09805 0.43593 -1.06963 141 137 115
0.09755 0.43542 -1.06973 145 139 127
0.09910 0.43688 -1.07675 120 109 89
0.09954 0.43675 -1.07564 86 66 57
0.10006 0.43675 -1.07553 86 60 54
0.10057 0.43676 -1.07542 106 76 70
0.10139 0.43573 -1.06731 153 148 133
0.10188 0.43523 -1.06720 152 149 136
0.11012 0.43473 -1.05758 168 167 150
0.11059 0.43425 -1.05747 166 167 145
0.11054 0.43468 -1.05709 166 167 145
0.11101 0.43468 -1.05698 162 164 142
0.11145 0.43465 -1.05670 154 157 141
0.12807 0.42174 -0.95342 130 124 112
0.12828 0.42153 -0.95337 129 120 105
0.08362 0.43499 -1.06964 143 141 126
0.08313 0.43449 -1.06974 137 132 120
0.08362 0.43449 -1.06963 143 140 130
0.08411 0.43449 -1.06952 148 148 133
0.09806 0.43544 -1.06975 140 134 117
0.09756 0.43493 -1.06985 144 138 128
0.09916 0.43645 -1.07746 119 108 93
0.09954 0.43623 -1.07567 86 65 58
0.10006 0.43624 -1.07556 87 56 56
0.10057 0.43624 -1.07545 104 73 72
0.12834 0.42159 -0.95384 130 122 110
0.12855 0.42138 -0.95379 129 120 106
0.09800 0.43482 -1.06890 138 137 118
0.09750 0.43432 -1.06900 144 140 124
0.09916 0.43592 -1.07747 119 108 92
0.09950 0.43565 -1.07517 83 61 56
0.10002 0.43565 -1.07506 85 54 55
0.10053 0.43565 -1.07495 106 73 75
0.10069 0.43514 -1.07085 138 118 115
0.12773 0.42129 -0.95324 141 132 117
0.12793 0.42108 -0.95319 128 120 104
0.12828 0.42137 -0.95374 129 120 107
0.12849 0.42116 -0.95369 128 121 107
0.07623 0.43282 -1.06171 122 116 103
0.07670 0.43329 -1.06161 133 125 106
0.09800 0.43432 -1.06889 139 137 115
0.09750 0.43381 -1.06898 141 139 120
0.09885 0.43489 -1.07339 118 110 92
0.09945 0.43504 -1.07446 82 65 55
0.09996 0.43504 -1.07435 87 57 53
0.10047 0.43504 -1.07424 104 71 69
0.10070 0.43464 -1.07089 136 116 107
0.10108 0.43447 -1.06943 147 141 126
0.10158 0.43397 -1.06932 146 147 134
0.10157 0.43446 -1.06922 145 145 131
0.10207 0.43497 -1.06912 149 148 129
0.10207 0.43446 -1.06911 151 148 133
0.10207 0.43395 -1.06910 148 150 138
0.12746 0.42107 -0.95318 157 146 130
0.12725 0.42086 -0.95322 162 154 135
0.12776 0.42109 -0.95329 139 128 113
0.12796 0.42088 -0.95324 127 120 104
0.12507 0.42011 -0.94583 128 118 103
0.12489 0.42029 -0.94587 124 113 101
0.12489 0.42011 -0.94587 124 114 99
0.12489 0.41992 -0.94587 125 115 99
0.12507 0.42029 -0.94584 126 117 101
0.12526 0.42029 -0.94580 131 123 106
0.09796 0.43376 -1.06842 139 138 114
0.09938 0.43441 -1.07360 80 65 52
0.09989 0.43442 -1.07349 87 58 55
0.10040 0.43442 -1.07338 101 72 70
0.10063 0.43403 -1.07011 134 119 107
0.10109 0.43398 -1.06957 145 143 126
0.12741 0.42085 -0.95311 156 144 130
0.12721 0.42064 -0.95315 163 153 138
0.12786 0.42090 -0.95344 137 126 113
0.12807 0.42070 -0.95340 127 120 106
0.12548 0.42000 -0.94643 132 120 105
0.12567 0.41981 -0.94639 136 124 115
0.09742 0.43318 -1.06791 138 137 114
0.09693 0.43368 -1.06802 138 137 120
0.09693 0.43318 -1.06802 137 138 122
0.09742 0.43268 -1.06790 137 134 114
0.09884 0.43385 -1.07334 116 109 85
0.09929 0.43377 -1.07249 83 64 53
0.09980 0.43377 -1.07238 85 55 56
0.10030 0.43377 -1.07227 101 72 69
0.10061 0.43349 -1.06983 135 118 108
0.10110 0.43348 -1.06962 146 141 128
0.10159 0.43297 -1.06950 147 144 132
0.10159 0.43347 -1.06944 147 144 133
0.10209 0.43347 -1.06933 148 148 139
0.10209 0.43297 -1.06932 146 145 133
0.12749 0.42066 -0.95323 153 143 131
0.12729 0.42045 -0.95327 162 153 138
0.12804 0.42073 -0.95372 134 126 114
0.12825 0.42052 -0.95367 128 118 107
0.12578 0.41987 -0.94687 134 123 110
0.12596 0.41968 -0.94682 134 124 116
0.07624 0.43138 -1.06150 121 113 95
0.07578 0.43091 -1.06159 117 111 93
0.09908 0.43369 -1.07640 119 107 83
0.09923 0.43317 -1.07178 84 61 50
0.09974 0.43317 -1.07167 84 53 52
0.10024 0.43317 -1.07156 101 70 68
0.10059 0.43296 -1.06966 137 119 108
0.10107 0.43295 -1.06938 148 140 127
0.10157 0.43244 -1.06926 145 142 126
0.12809 0.42053 -0.95379 133 123 111
0.12829 0.42032 -0.95374 129 118 107
0.12591 0.41974 -0.94738 124 116 106
0.12572 0.41955 -0.94742 120 112 99
0.08759 0.43237 -1.07192 146 141 124
0.08709 0.43287 -1.07204 149 144 133
0.08709 0.43236 -1.07203 149 143 133
0.08709 0.43186 -1.07202 147 143 131
0.08809 0.43186 -1.07180 141 137 117
0.09921 0.43336 -1.07811 115 105 79
0.09920 0.43260 -1.07129 83 64 49
0.09970 0.43260 -1.07118 84 53 53
0.10020 0.43260 -1.07108 102 69 71
0.10062 0.43249 -1.06999 135 113 104
0.10110 0.43246 -1.06961 146 139 122
0.10159 0.43196 -1.06949 143 144 126
0.12812 0.42033 -0.95383 132 121 108
0.12832 0.42012 -0.95378 127 119 107
0.09922 0.43213 -1.07163 81 61 53
0.09973 0.43213 -1.07152 85 52 57
0.10023 0.43213 -1.07141 103 70 72
0.10062 0.43199 -1.07005 133 115 106
0.10111 0.43198 -1.06978 144 140 122
0.10161 0.43147 -1.06967 141 143 128
0.11070 0.43132 -1.06140 159 161 141
0.11022 0.43181 -1.06152 165 166 151
0.11022 0.43132 -1.06151 164 166 151
0.11400 0.43159 -1.06316 157 158 136
0.11453 0.43162 -1.06333 156 158 138
0.11502 0.43113 -1.06322 148 151 130
0.12647 0.41947 -0.94820 121 113 99
0.12627 0.41927 -0.94824 120 113 105
0.08311 0.43134 -1.07282 134 134 116
0.08261 0.43184 -1.07294 143 144 127
0.08261 0.43133 -1.07293 144 143 128
0.08261 0.43083 -1.07292 146 142 123
0.08311 0.43184 -1.07283 134 135 116
0.08361 0.43184 -1.07272 138 136 121
0.08361 0.43134 -1.07271 138 136 121
0.08410 0.43184 -1.07262 146 143 130
0.08410 0.43128 -1.07207 147 142 130
0.08460 0.43179 -1.07197 147 145 130
0.08460 0.43128 -1.07196 149 143 131
0.08460 0.43078 -1.07195 149 143 125
0.10063 0.43148 -1.07005 133 115 111
0.10111 0.43147 -1.06979 142 138 125
0.11013 0.43076 -1.06090 161 162 148
0.11401 0.43110 -1.06321 147 149 128
0.11456 0.43114 -1.06346 148 151 129
0.12654 0.41929 -0.94831 124 116 104
0.12635 0.41909 -0.94835 122 113 104
0.07578 0.42947 -1.06138 116 108 94
0.07532 0.42994 -1.06149 113 106 89
0.07532 0.42947 -1.06148 113 106 87
0.07532 0.42900 -1.06147 113 106 92
0.07578 0.42900 -1.06137 115 108 96
0.08310 0.43089 -1.07341 135 132 109
0.08260 0.43038 -1.07351 145 144 122
0.08360 0.43089 -1.07330 137 134 113
0.08410 0.43082 -1.07251 146 140 122
0.08460 0.43032 -1.07240 149 143 123
0.10066 0.43102 -1.07049 134 113 107
0.10114 0.43099 -1.07011 144 136 123
0.10165 0.43101 -1.07010 141 140 128
0.10215 0.43152 -1.07001 143 143 127
0.10215 0.43101 -1.07000 143 142 129
0.10215 0.43050 -1.06999 144 140 124
0.11402 0.43061 -1.06328 129 130 109
0.11451 0.43061 -1.06317 131 131 112
0.12662 0.41910 -0.94842 126 116 107
0.12643 0.41891 -0.94846 122 112 97
0.08310 0.43038 -1.07343 135 131 110
0.08260 0.42988 -1.07353 143 143 127
0.08310 0.42988 -1.07342 133 129 114
0.08360 0.42988 -1.07332 137 130 119
0.08360 0.43039 -1.07332 137 131 114
0.08410 0.43032 -1.07258 147 139 124
0.08460 0.42982 -1.07247 148 142 128
0.10069 0.43054 -1.07079 132 111 105
0.10115 0.43049 -1.07016 145 134 121
0.10165 0.42998 -1.07005 144 138 118
0.10169 0.43053 -1.07046 144 138 122
0.10219 0.43002 -1.07035 145 140 121
0.11364 0.43018 -1.06406 114 114 98
0.11413 0.42968 -1.06395 117 114 95
0.11400 0.43010 -1.06318 117 116 98
0.11449 0.42960 -1.06307 118 112 94
0.11436 0.43002 -1.06229 119 116 96
0.11485 0.42953 -1.06218 117 110 94
0.12692 0.41896 -0.94887 126 116 101
0.12673 0.41877 -0.94891 122 112 94
0.07622 0.42858 -1.06181 117 112 96
0.07575 0.42811 -1.06191 114 110 89
0.08410 0.42981 -1.07249 146 139 128
0.08360 0.42930 -1.07259 135 129 114
0.08460 0.42930 -1.07237 147 141 127
0.10067 0.43001 -1.07061 130 113 102
0.10114 0.42998 -1.07012 144 135 118
0.10164 0.42947 -1.07000 142 136 119
0.11320 0.42971 -1.06450 116 114 92
0.11369 0.42921 -1.06438 114 111 89
0.12754 0.41884 -0.94946 131 122 104
0.12774 0.41864 -0.94941 132 124 115
0.09896 0.42925 -1.06834 81 61 48
0.09946 0.42925 -1.06824 82 51 47
0.09995 0.42925 -1.06813 100 70 64
0.10065 0.42948 -1.07037 131 114 100
0.10113 0.42946 -1.07001 143 137 116
0.10163 0.42895 -1.06989 142 136 122
0.10634 0.42884 -1.06223 143 142 122
0.10585 0.42835 -1.06233 143 143 124
0.10634 0.42835 -1.06222 142 142 122
0.09895 0.42874 -1.06823 79 58 47
0.09945 0.42874 -1.06813 81 52 48
0.09994 0.42874 -1.06802 97 71 63
0.10063 0.42894 -1.07007 132 114 99
0.10112 0.42893 -1.06983 144 135 115
0.10162 0.42842 -1.06971 140 136 120
0.11324 0.42874 -1.06475 115 116 90
0.11374 0.42823 -1.06464 115 117 97
0.09844 0.42822 -1.06815 111 100 86
0.09897 0.42825 -1.06844 77 56 49
0.09947 0.42825 -1.06834 80 51 47
0.09996 0.42826 -1.06823 96 69 63
0.10063 0.42844 -1.07008 131 112 98
0.10112 0.42843 -1.06989 141 132 112
0.10162 0.42792 -1.06978 139 135 122
0.10829 0.42821 -1.06570 137 138 122
0.10780 0.42771 -1.06579 130 132 114
0.10879 0.42822 -1.06565 146 145 124
0.10926 0.42820 -1.06536 151 152 126
0.10972 0.42818 -1.06503 153 156 129
0.11337 0.42830 -1.06552 117 119 97
0.11386 0.42780 -1.06540 118 119 100
0.12069 0.41792 -0.94750 125 118 106
0.12088 0.41773 -0.94745 142 133 115
0.09850 0.42778 -1.06891 111 101 81
0.09900 0.42779 -1.06888 77 56 44
0.09950 0.42779 -1.06877 80 50 45
0.10000 0.42779 -1.06867 97 66 61
0.10064 0.42794 -1.07021 128 112 98
0.10114 0.42794 -1.07006 139 133 117
0.10164 0.42743 -1.06994 139 134 117
0.10845 0.42781 -1.06687 136 138 122
0.10795 0.42731 -1.06697 128 131 112
0.10894 0.42781 -1.06670 144 144 123
0.10943 0.42731 -1.06659 146 148 121
0.10942 0.42781 -1.06654 149 149 122
0.10988 0.42778 -1.06617 149 151 126
0.11345 0.42784 -1.06600 117 120 100
0.11394 0.42734 -1.06589 120 121 100
0.09859 0.42737 -1.07006 112 99 81
0.09907 0.42735 -1.06970 77 54 43
0.09957 0.42736 -1.06960 81 51 43
0.10007 0.42736 -1.06949 96 66 57
0.10066 0.42745 -1.07046 127 109 95
0.10115 0.42744 -1.07018 139 133 115
0.10165 0.42693 -1.07006 138 137 113
0.10855 0.42737 -1.06761 135 138 120
0.10805 0.42686 -1.06771 128 131 108
0.10904 0.42737 -1.06747 141 143 122
0.11003 0.42737 -1.06719 140 143 115
0.11365 0.42745 -1.06724 117 119 101
0.11415 0.42694 -1.06712 120 119 100
0.12272 0.41775 -0.94946 153 145 131
0.12291 0.41755 -0.94942 156 146 133
0.09783 0.42657 -1.06663 128 123 108
0.09734 0.42607 -1.06673 128 130 111
0.09848 0.42675 -1.06867 112 98 92
0.09914 0.42692 -1.07060 75 51 48
0.09964 0.42692 -1.07049 81 50 44
0.10014 0.42692 -1.07038 95 65 54
0.10066 0.42694 -1.07049 126 109 93
0.10116 0.42694 -1.07032 137 133 113
0.10166 0.42643 -1.07020 134 135 110
0.10753 0.42685 -1.06765 133 137 114
0.10703 0.42736 -1.06777 139 140 121
0.10703 0.42685 -1.06776 136 141 120
0.10802 0.42634 -1.06754 131 129 104
0.10863 0.42692 -1.06827 134 136 114
0.10917 0.42695 -1.06846 141 142 122
0.10970 0.42696 -1.06849 144 147 123
0.11023 0.42698 -1.06865 130 134 109
0.11107 0.42718 -1.07086 101 104 82
0.11334 0.42704 -1.06856 125 127 103
0.11386 0.42705 -1.06856 115 116 97
