ply
format ascii 1.0
element face 0
property list uchar int vertex_indices
element vertex 970
property float x
property float y
property float z
property uchar diffuse_red
property uchar diffuse_green
property uchar diffuse_blue
end_header
0.05306 0.45328 -1.00596 129 113 114
0.05356 0.45277 -1.00582 139 121 115
0.11218 0.44265 -0.94768 233 233 231
0.11180 0.44225 -0.94781 230 237 234
0.11275 0.44264 -0.94902 233 233 230
0.11237 0.44223 -0.94915 231 236 234
0.11314 0.44249 -0.94990 233 233 230
0.11275 0.44208 -0.95003 230 237 233
0.11314 0.44209 -0.94991 231 233 225
0.11353 0.44209 -0.94978 220 221 215
0.05263 0.44775 -1.00874 107 94 96
0.05213 0.44826 -1.00888 98 91 91
0.05213 0.44774 -1.00890 102 90 89
0.05214 0.44723 -1.00891 103 90 90
0.05262 0.44826 -1.00873 105 95 97
0.05312 0.44826 -1.00857 120 107 108
0.05312 0.44782 -1.00889 118 104 106
0.05361 0.44834 -1.00872 130 118 114
0.05262 0.44758 -1.01025 105 95 97
0.05213 0.44705 -1.01042 101 92 88
0.05262 0.44720 -1.01088 104 95 96
0.05213 0.44667 -1.01105 100 93 89
0.05312 0.44650 -1.01229 113 102 99
0.05363 0.44598 -1.01214 125 114 104
0.10167 0.46513 -1.07925 186 169 168
0.10239 0.46439 -1.07904 193 187 180
0.05312 0.44612 -1.01295 112 103 96
0.05363 0.44559 -1.01281 125 115 107
0.10173 0.46446 -1.07956 183 170 167
0.10245 0.46372 -1.07936 192 188 173
0.05312 0.44570 -1.01345 113 104 100
0.05262 0.44516 -1.01362 104 94 88
0.10168 0.46364 -1.07927 184 171 165
0.10241 0.46290 -1.07906 191 186 180
0.04597 0.44803 -1.02923 126 118 119
0.04543 0.44860 -1.02939 139 130 126
0.04543 0.44803 -1.02940 140 131 127
0.04544 0.44747 -1.02941 141 131 122
0.04597 0.44860 -1.02922 124 120 116
0.04651 0.44860 -1.02905 112 108 108
0.04654 0.44790 -1.02844 112 106 112
0.04707 0.44847 -1.02825 108 105 102
0.04708 0.44791 -1.02827 107 103 105
0.04709 0.44735 -1.02828 106 103 106
0.10165 0.46284 -1.07904 183 169 167
0.10238 0.46210 -1.07884 186 183 179
0.04600 0.44738 -1.02883 126 117 117
0.04547 0.44682 -1.02902 142 132 122
0.04657 0.44723 -1.02793 113 106 111
0.04711 0.44668 -1.02778 106 103 104
0.09877 0.46301 -1.08435 170 170 157
0.09806 0.46225 -1.08460 171 172 157
0.09953 0.46305 -1.08429 155 152 139
0.10153 0.46193 -1.07830 181 169 169
0.10225 0.46119 -1.07810 183 183 172
0.04602 0.44678 -1.02865 127 117 115
0.04548 0.44621 -1.02884 142 132 122
0.04602 0.44622 -1.02867 128 118 111
0.04656 0.44622 -1.02850 115 107 108
0.04659 0.44661 -1.02764 114 106 108
0.04713 0.44605 -1.02749 108 103 108
0.05311 0.44487 -1.01710 112 100 98
0.05261 0.44433 -1.01728 105 92 93
0.09865 0.46207 -1.08354 171 167 152
0.09794 0.46131 -1.08378 172 170 156
0.09937 0.46207 -1.08329 155 148 135
0.05312 0.44434 -1.01718 113 99 97
0.05261 0.44380 -1.01735 104 91 92
0.09852 0.46113 -1.08271 171 166 153
0.09781 0.46038 -1.08295 173 169 153
0.09926 0.46116 -1.08258 154 150 139
0.05313 0.44366 -1.01650 112 98 94
0.05263 0.44312 -1.01668 103 91 93
0.09839 0.46019 -1.08185 170 166 149
0.09768 0.45944 -1.08209 171 167 158
0.09910 0.46019 -1.08159 153 150 135
0.05315 0.44294 -1.01559 110 98 94
0.05264 0.44240 -1.01576 100 94 93
0.05366 0.44298 -1.01561 121 110 97
0.05418 0.44245 -1.01546 129 118 101
0.09816 0.45913 -1.08040 170 165 152
0.09746 0.45838 -1.08064 169 166 157
0.09883 0.45908 -1.07992 153 146 134
0.10032 0.46006 -1.08428 124 110 110
0.10095 0.45996 -1.08353 115 94 101
0.10168 0.45996 -1.08331 144 125 127
0.05316 0.44229 -1.01501 108 98 91
0.05266 0.44175 -1.01518 101 93 91
0.05317 0.44176 -1.01502 109 97 91
0.05368 0.44176 -1.01486 121 109 96
0.05367 0.44234 -1.01510 120 110 95
0.05419 0.44181 -1.01495 130 119 103
0.09997 0.45886 -1.08218 125 111 111
0.10058 0.45873 -1.08129 115 94 100
0.10129 0.45873 -1.08107 146 125 132
0.09901 0.45445 -1.06387 177 164 164
0.09968 0.45445 -1.06364 184 180 174
0.10036 0.45375 -1.06345 183 185 173
0.10033 0.45442 -1.06330 184 183 172
0.10101 0.45373 -1.06311 185 185 178
0.09723 0.45570 -1.07458 166 166 157
0.09654 0.45497 -1.07482 167 168 153
0.09789 0.45565 -1.07412 152 145 139
0.09881 0.45350 -1.06269 176 163 156
0.09951 0.45354 -1.06266 182 182 167
0.10019 0.45285 -1.06246 186 182 173
0.09706 0.45475 -1.07349 167 165 156
0.09638 0.45402 -1.07373 166 165 155
0.09781 0.45481 -1.07358 153 144 142
0.09897 0.45298 -1.06358 175 162 157
0.09960 0.45293 -1.06311 184 178 169
0.10028 0.45224 -1.06292 185 184 173
0.11273 0.43477 -0.96347 143 149 147
0.09699 0.45392 -1.07299 166 162 155
0.09630 0.45319 -1.07322 167 164 155
0.09778 0.45404 -1.07336 153 145 139
0.09921 0.45254 -1.06490 175 161 158
0.09983 0.45248 -1.06437 183 179 167
0.10051 0.45178 -1.06417 183 183 170
0.11714 0.43885 -0.98603 192 200 193
0.11666 0.43834 -0.98619 195 196 190
0.11803 0.43909 -0.98699 185 191 182
0.09709 0.45331 -1.07357 167 164 151
0.09640 0.45258 -1.07380 165 163 156
0.09947 0.45212 -1.06634 172 159 154
0.10008 0.45204 -1.06570 180 178 165
0.10076 0.45134 -1.06550 183 180 172
0.11663 0.43805 -0.98464 193 196 188
0.11616 0.43755 -0.98480 194 195 183
0.11764 0.43835 -0.98590 183 185 177
0.11773 0.43813 -0.98467 155 158 156
0.09707 0.45255 -1.07344 166 163 149
0.09639 0.45182 -1.07367 166 164 159
0.09798 0.45280 -1.07447 150 146 129
0.10138 0.45507 -1.08573 116 90 93
0.10203 0.45499 -1.08504 142 119 127
0.11199 0.45418 -1.07717 169 172 156
0.11126 0.45492 -1.07738 196 199 182
0.11127 0.45418 -1.07740 182 185 167
0.11198 0.45493 -1.07715 190 193 177
0.11269 0.45493 -1.07693 190 192 180
0.11270 0.45419 -1.07695 176 179 166
0.11700 0.43748 -0.98415 182 184 171
0.11542 0.42230 -0.90170 215 210 198
0.11550 0.42215 -0.90088 202 196 182
0.11577 0.42187 -0.90080 194 189 173
0.11562 0.42210 -0.90059 195 189 174
0.11592 0.42212 -0.90055 197 190 171
0.11625 0.42214 -0.90055 205 199 179
0.11652 0.42186 -0.90047 208 203 185
0.09706 0.45181 -1.07334 163 164 153
0.09638 0.45108 -1.07357 164 164 157
0.09796 0.45204 -1.07434 150 144 134
0.10124 0.45496 -1.08939 122 109 101
0.10187 0.45485 -1.08854 118 89 92
0.10253 0.45476 -1.08784 143 116 123
0.11108 0.45389 -1.08005 190 193 175
0.11034 0.45464 -1.08026 187 189 177
0.11035 0.45389 -1.08028 187 189 175
0.11037 0.45314 -1.08030 186 188 171
0.11107 0.45465 -1.08004 192 194 180
0.11147 0.45360 -1.07831 178 181 161
0.11186 0.45331 -1.07656 165 168 148
0.11262 0.45336 -1.07655 173 175 159
0.11333 0.45411 -1.07631 187 189 182
0.11334 0.45336 -1.07633 186 189 175
0.11335 0.45262 -1.07635 171 176 162
0.11515 0.42201 -0.90179 219 213 199
0.11488 0.42173 -0.90188 216 211 198
0.11515 0.42173 -0.90180 217 211 197
0.11496 0.42187 -0.90105 213 209 194
0.11526 0.42179 -0.90054 201 195 182
0.11553 0.42152 -0.90047 193 187 170
0.11580 0.42180 -0.90038 197 193 174
0.11618 0.42183 -0.90045 204 200 181
0.11645 0.42156 -0.90037 208 203 183
0.09705 0.45105 -1.07320 164 162 152
0.09636 0.45033 -1.07343 164 165 156
0.09786 0.45119 -1.07371 148 144 133
0.10297 0.45446 -1.09033 140 119 121
0.11094 0.45300 -1.07936 189 192 174
0.11023 0.45225 -1.07960 186 189 172
0.11140 0.45278 -1.07792 176 179 161
0.11179 0.45250 -1.07623 161 164 148
0.11252 0.45176 -1.07602 142 144 142
0.11248 0.45248 -1.07588 165 170 154
0.11320 0.45174 -1.07567 123 128 129
0.11500 0.42160 -0.90111 213 208 192
0.11473 0.42132 -0.90120 215 208 195
0.11507 0.42145 -0.90027 200 193 177
0.11534 0.42118 -0.90020 192 186 174
0.11568 0.42148 -0.90022 196 192 171
0.09707 0.45035 -1.07330 163 163 148
0.09639 0.44962 -1.07354 163 164 154
0.09789 0.45049 -1.07382 146 144 128
0.10176 0.45398 -1.09242 121 109 103
0.11067 0.45201 -1.07809 189 192 176
0.11068 0.45126 -1.07811 191 194 175
0.11114 0.45180 -1.07671 177 179 168
0.11166 0.45163 -1.07558 158 160 156
0.11238 0.45089 -1.07537 147 148 140
0.11726 0.45216 -1.07662 185 187 173
0.11656 0.45140 -1.07687 176 177 168
0.11799 0.45141 -1.07642 191 194 176
0.11506 0.42133 -0.90119 211 205 189
0.11497 0.42114 -0.90014 199 191 178
0.11524 0.42087 -0.90006 192 185 171
0.11533 0.42109 -0.89972 195 191 175
0.09716 0.44971 -1.07381 161 162 149
0.09648 0.44898 -1.07405 161 163 151
0.09794 0.44980 -1.07406 145 145 128
0.10161 0.45301 -1.09144 120 106 101
0.10227 0.45293 -1.09072 115 89 96
0.10312 0.45305 -1.09111 140 112 120
0.10968 0.45101 -1.07698 184 186 171
0.10896 0.45175 -1.07718 179 181 169
0.10897 0.45100 -1.07720 177 177 173
0.11070 0.45067 -1.07464 187 190 174
0.11122 0.45051 -1.07353 174 176 163
0.11525 0.42119 -0.90194 218 210 198
0.11497 0.42147 -0.90202 214 209 200
0.11498 0.42119 -0.90203 218 213 204
0.11498 0.42091 -0.90203 218 213 200
0.09730 0.44913 -1.07461 159 161 149
0.09661 0.44840 -1.07485 162 162 150
0.09811 0.44925 -1.07505 144 142 126
0.10856 0.44989 -1.07519 176 178 165
0.10784 0.45062 -1.07539 181 179 173
0.10785 0.44989 -1.07541 180 179 164
0.10786 0.44915 -1.07543 177 180 162
0.10922 0.44985 -1.07471 183 186 169
0.10984 0.44978 -1.07408 193 196 178
0.11055 0.44905 -1.07388 198 200 185
0.11026 0.44955 -1.07256 196 199 183
0.11098 0.44882 -1.07236 194 197 182
0.11067 0.44930 -1.07096 190 193 178
0.11138 0.44857 -1.07076 181 184 168
0.11550 0.42098 -0.90230 217 210 196
0.11523 0.42070 -0.90239 216 211 197
0.09740 0.44850 -1.07519 159 159 144
0.09671 0.44776 -1.07542 160 158 145
0.09816 0.44856 -1.07531 149 142 127
0.09753 0.44789 -1.07593 159 158 140
0.09684 0.44716 -1.07617 159 159 140
0.09828 0.44795 -1.07599 146 144 119
0.10861 0.44727 -1.06825 191 194 176
0.10931 0.44656 -1.06805 195 198 181
0.09764 0.44726 -1.07654 157 158 140
0.09694 0.44653 -1.07678 159 159 142
0.09839 0.44732 -1.07663 144 144 124
0.09966 0.44585 -1.06706 164 152 144
0.10034 0.44585 -1.06685 174 170 157
0.09755 0.44643 -1.07597 159 159 146
0.09686 0.44570 -1.07621 158 159 144
0.09831 0.44650 -1.07609 144 140 129
0.09953 0.44501 -1.06628 164 153 141
0.10021 0.44501 -1.06607 170 170 154
0.10090 0.44431 -1.06587 169 171 156
0.10090 0.44503 -1.06594 171 174 156
0.10157 0.44574 -1.06571 175 177 166
0.10158 0.44503 -1.06572 175 176 160
0.10159 0.44432 -1.06574 175 174 164
0.11382 0.43115 -0.97406 132 141 132
0.11478 0.41964 -0.90127 211 204 189
0.11492 0.41961 -0.90101 204 198 181
0.09750 0.44564 -1.07559 157 157 142
0.09681 0.44490 -1.07583 158 157 146
0.09822 0.44567 -1.07555 146 139 128
0.11361 0.43057 -0.97348 132 139 132
0.11474 0.41942 -0.90168 213 207 193
0.11446 0.41970 -0.90176 214 210 194
0.11447 0.41942 -0.90177 214 208 195
0.11447 0.41914 -0.90178 213 206 194
0.11474 0.41914 -0.90169 212 205 191
0.11463 0.41932 -0.90105 210 203 185
0.11480 0.41929 -0.90084 203 196 176
0.09754 0.44494 -1.07580 156 156 143
0.09685 0.44420 -1.07604 158 156 143
0.09829 0.44499 -1.07588 142 139 124
0.11450 0.41900 -0.90087 208 201 186
0.11424 0.41872 -0.90096 210 205 189
0.09754 0.44421 -1.07580 154 156 138
0.09685 0.44347 -1.07604 154 154 141
0.09829 0.44426 -1.07588 141 140 123
0.09746 0.44338 -1.07524 153 153 135
0.09677 0.44265 -1.07548 153 155 143
0.09818 0.44341 -1.07514 140 135 117
0.10678 0.44153 -1.05942 184 186 174
0.09745 0.44264 -1.07514 150 152 135
0.09676 0.44191 -1.07538 156 156 143
0.09820 0.44269 -1.07525 138 133 116
0.09887 0.44267 -1.07484 115 100 87
0.09961 0.44270 -1.07483 111 86 79
0.10027 0.44268 -1.07440 127 109 97
0.10610 0.44082 -1.05956 171 173 160
0.10545 0.44012 -1.05979 164 166 149
0.10657 0.44068 -1.05843 183 185 172
0.10696 0.44048 -1.05696 188 191 176
0.10763 0.43980 -1.05677 187 190 171
0.08114 0.43616 -1.04068 153 146 135
0.08055 0.43553 -1.04088 149 140 122
0.08184 0.43629 -1.04134 155 150 138
0.08245 0.43566 -1.04116 154 152 140
0.09736 0.44182 -1.07456 154 153 138
0.09667 0.44109 -1.07479 153 153 138
0.09816 0.44191 -1.07494 139 136 119
0.09873 0.44181 -1.07399 114 102 89
0.09943 0.44181 -1.07378 109 86 80
0.10013 0.44182 -1.07356 127 107 102
0.09879 0.44008 -1.06189 157 143 136
0.09936 0.44000 -1.06113 165 161 148
0.10005 0.44003 -1.06108 164 166 150
0.10070 0.44073 -1.06085 164 166 154
0.10071 0.44003 -1.06087 167 169 155
0.10567 0.43980 -1.05747 170 173 156
0.10502 0.43911 -1.05769 164 164 150
0.10615 0.43968 -1.05643 181 183 170
0.10682 0.43899 -1.05624 185 187 169
0.10656 0.43950 -1.05504 186 188 173
0.10722 0.43882 -1.05486 185 188 168
0.11567 0.41791 -0.90068 188 184 165
0.11587 0.41790 -0.90050 197 194 172
0.11614 0.41762 -0.90042 200 195 173
0.07739 0.43443 -1.03415 133 125 111
0.07682 0.43382 -1.03434 127 118 102
0.07824 0.43480 -1.03650 144 136 120
0.07883 0.43419 -1.03633 148 142 122
0.08107 0.43544 -1.04007 153 144 128
0.08049 0.43482 -1.04027 147 140 123
0.08185 0.43566 -1.04137 154 148 132
0.08246 0.43504 -1.04120 154 151 141
0.09783 0.44088 -1.07291 136 136 118
0.09853 0.44089 -1.07273 113 102 90
0.09922 0.44090 -1.07251 106 86 78
0.09991 0.44090 -1.07230 125 107 100
0.09871 0.43932 -1.06143 156 144 130
0.09929 0.43925 -1.06075 164 159 138
0.09997 0.43856 -1.06056 163 165 140
0.09998 0.43927 -1.06065 162 164 139
0.10065 0.43858 -1.06045 163 165 147
0.10544 0.43894 -1.05634 169 170 155
0.10479 0.43825 -1.05656 161 163 147
0.10595 0.43884 -1.05545 181 182 166
0.10662 0.43816 -1.05526 185 185 169
0.10765 0.43823 -1.05052 178 182 159
0.10822 0.43819 -1.04999 171 176 156
0.10887 0.43752 -1.04980 168 172 155
0.11596 0.41764 -0.90064 197 195 169
0.11624 0.41736 -0.90056 199 194 175
0.08110 0.43484 -1.04023 149 144 127
0.08051 0.43422 -1.04043 146 142 125
0.08170 0.43422 -1.04006 152 150 136
0.08187 0.43505 -1.04148 152 149 132
0.08248 0.43443 -1.04131 152 151 140
0.09752 0.43988 -1.07100 137 135 120
0.09824 0.43991 -1.07099 112 101 88
0.09894 0.43920 -1.07079 108 84 82
0.09893 0.43992 -1.07077 105 85 79
0.09962 0.43992 -1.07056 126 108 101
0.09862 0.43854 -1.06084 155 143 129
0.09923 0.43850 -1.06037 163 160 138
0.09990 0.43781 -1.06018 162 163 146
0.10522 0.43809 -1.05526 168 170 156
0.10575 0.43801 -1.05449 177 180 163
0.10696 0.43752 -1.05050 181 185 168
0.10632 0.43752 -1.05070 184 187 171
0.10633 0.43685 -1.05072 184 187 168
0.10739 0.43738 -1.04932 176 181 161
0.10792 0.43732 -1.04865 171 174 155
0.10857 0.43665 -1.04847 169 173 152
0.11478 0.41746 -0.90175 205 201 185
0.11451 0.41717 -0.90184 207 203 187
0.11559 0.41727 -0.90011 197 193 170
0.11586 0.41699 -0.90004 200 191 174
0.08111 0.43422 -1.04024 147 146 131
0.08052 0.43359 -1.04044 144 141 127
0.08171 0.43360 -1.04007 151 148 138
0.09789 0.43889 -1.06887 113 101 92
0.09925 0.43890 -1.06844 127 107 103
0.10411 0.43708 -1.05325 160 162 149
0.10346 0.43708 -1.05345 161 163 145
0.10347 0.43640 -1.05347 161 162 145
0.10412 0.43641 -1.05326 160 161 145
0.10496 0.43722 -1.05399 167 169 157
0.10554 0.43718 -1.05346 176 179 162
0.10602 0.43707 -1.05245 183 186 167
0.10667 0.43640 -1.05226 181 185 163
0.10680 0.43674 -1.04971 181 183 167
0.10745 0.43607 -1.04953 175 178 161
0.10725 0.43662 -1.04868 176 179 165
0.10790 0.43596 -1.04850 169 173 153
0.10779 0.43656 -1.04804 170 174 155
0.10844 0.43590 -1.04785 168 174 151
0.11439 0.41708 -0.90119 205 201 183
0.11412 0.41680 -0.90128 205 202 181
0.11524 0.41691 -0.89962 196 191 170
0.11551 0.41663 -0.89954 199 190 173
0.09784 0.43813 -1.06857 112 99 93
0.09854 0.43743 -1.06837 105 82 80
0.09853 0.43814 -1.06836 108 81 84
0.09921 0.43814 -1.06814 127 104 103
0.08114 0.43299 -1.04039 147 142 128
0.08055 0.43237 -1.04059 147 139 124
0.08115 0.43237 -1.04041 149 142 127
0.08200 0.43330 -1.04242 151 147 135
0.08259 0.43393 -1.04222 151 151 141
0.08260 0.43330 -1.04223 151 151 141
0.08261 0.43267 -1.04225 151 151 137
0.09782 0.43739 -1.06836 112 98 91
0.09918 0.43740 -1.06794 126 101 98
0.08197 0.43263 -1.04213 150 147 131
0.08138 0.43200 -1.04234 148 142 127
0.08258 0.43200 -1.04196 149 151 134
0.08196 0.43134 -1.04193 152 148 132
0.08136 0.43134 -1.04212 148 141 127
0.08256 0.43135 -1.04174 150 151 133
0.08257 0.43072 -1.04176 151 150 131
0.08127 0.43061 -1.04128 147 143 126
0.08066 0.43123 -1.04145 147 139 126
0.08067 0.43060 -1.04147 147 140 122
0.08068 0.42998 -1.04148 145 139 120
0.08188 0.42999 -1.04111 149 147 127
0.08196 0.43070 -1.04183 150 149 130
0.08257 0.43008 -1.04165 150 148 126
0.10913 0.42018 -0.94340 169 173 155
0.10950 0.42057 -0.94327 170 174 153
0.10950 0.42019 -0.94328 168 173 152
0.10951 0.41980 -0.94329 165 168 153
0.08129 0.42999 -1.04139 145 141 125
0.08070 0.42937 -1.04160 140 139 116
0.10782 0.43260 -1.05417 172 176 155
0.10716 0.43328 -1.05436 176 179 160
0.10717 0.43260 -1.05437 174 177 157
0.10718 0.43192 -1.05439 172 175 155
0.10781 0.43328 -1.05415 172 178 157
0.10783 0.43192 -1.05418 170 173 154
0.10946 0.41990 -0.94417 167 170 153
0.10984 0.41951 -0.94406 164 167 150
0.08122 0.42929 -1.04076 142 139 119
0.08063 0.42867 -1.04097 141 137 115
0.08123 0.42867 -1.04078 143 138 119
0.08193 0.42941 -1.04149 148 145 126
0.08253 0.42941 -1.04130 147 148 127
0.08254 0.42878 -1.04132 146 147 130
0.08192 0.42877 -1.04139 147 144 127
0.08253 0.42815 -1.04122 144 145 130
0.09796 0.43247 -1.06892 109 95 86
0.09865 0.43176 -1.06872 99 76 74
0.09864 0.43248 -1.06871 101 75 77
0.09932 0.43248 -1.06849 120 97 101
0.09760 0.43151 -1.06675 106 95 82
0.09895 0.43152 -1.06633 118 98 98
0.10787 0.43057 -1.05431 165 167 155
0.10721 0.43125 -1.05450 169 172 153
0.10721 0.43057 -1.05451 167 170 153
0.09723 0.43056 -1.06456 106 94 81
0.09790 0.43056 -1.06435 97 79 73
0.09857 0.43056 -1.06414 116 101 92
0.10808 0.43000 -1.05524 161 164 148
0.10874 0.42932 -1.05505 150 152 136
0.09680 0.42957 -1.06196 107 94 81
0.09746 0.42957 -1.06175 97 77 72
0.09815 0.42959 -1.06168 116 98 94
0.10331 0.42918 -1.05573 151 154 135
0.10266 0.42849 -1.05595 152 152 139
0.11087 0.42972 -1.05819 133 134 115
0.11155 0.42903 -1.05800 127 125 107
0.13766 0.43107 -1.06131 134 137 117
0.13729 0.43071 -1.05796 134 138 120
0.09678 0.42886 -1.06182 107 92 78
0.09745 0.42817 -1.06163 98 71 72
0.09744 0.42887 -1.06161 98 75 70
0.09811 0.42887 -1.06141 115 95 94
0.10359 0.42865 -1.05712 150 152 132
0.10294 0.42796 -1.05734 149 151 134
0.10360 0.42796 -1.05713 149 150 133
0.10426 0.42797 -1.05693 146 147 128
0.11022 0.42903 -1.05845 140 143 117
0.10957 0.42833 -1.05867 143 146 123
0.11102 0.42909 -1.05882 132 131 108
0.11170 0.42840 -1.05863 126 127 109
0.13707 0.42992 -1.05730 123 126 106
0.13640 0.42920 -1.05754 126 130 109
0.13708 0.42920 -1.05732 126 129 109
0.13777 0.42921 -1.05711 126 129 109
0.11053 0.42847 -1.05979 140 143 116
0.10987 0.42777 -1.06001 141 143 121
0.11130 0.42852 -1.06000 131 132 109
0.11198 0.42783 -1.05980 127 129 113
0.08107 0.42475 -1.03901 136 133 116
0.08048 0.42413 -1.03921 137 127 112
0.08183 0.42490 -1.04028 139 140 124
0.08244 0.42428 -1.04010 140 141 125
0.08108 0.42414 -1.03909 136 132 115
0.08050 0.42352 -1.03929 138 129 112
0.08109 0.42352 -1.03911 138 133 115
0.08168 0.42353 -1.03892 139 138 121
0.08186 0.42429 -1.04044 139 139 121
0.08246 0.42367 -1.04027 139 139 123
0.10735 0.42744 -1.06496 145 147 129
0.10666 0.42815 -1.06516 141 144 122
0.10667 0.42744 -1.06518 140 143 124
0.10668 0.42673 -1.06520 139 141 124
0.10802 0.42815 -1.06473 150 152 133
0.10803 0.42745 -1.06475 149 150 131
0.10751 0.42680 -1.06568 144 145 130
0.10684 0.42609 -1.06591 140 141 124
0.10820 0.42609 -1.06548 149 151 131
0.10821 0.42681 -1.06554 150 150 131
0.10888 0.42753 -1.06531 137 139 121
0.10888 0.42681 -1.06530 136 137 119
0.10955 0.42753 -1.06506 123 126 109
0.10941 0.42675 -1.06436 122 125 110
0.11008 0.42746 -1.06413 127 130 113
0.10780 0.42622 -1.06705 143 144 131
0.10713 0.42550 -1.06728 138 141 123
0.10923 0.42625 -1.06688 141 143 122
0.10986 0.42623 -1.06640 131 134 117
0.10801 0.42559 -1.06798 142 145 130
0.10733 0.42486 -1.06822 139 139 121
0.10870 0.42559 -1.06781 149 152 134
0.10940 0.42488 -1.06761 154 157 139
0.10950 0.42564 -1.06808 151 153 134
0.11007 0.42560 -1.06736 148 150 133
0.12403 0.42037 -0.99986 114 117 96
0.12350 0.42092 -1.00002 122 125 106
0.12351 0.41982 -1.00004 112 115 96
0.12404 0.41982 -0.99988 109 112 91
0.12457 0.41983 -0.99971 110 115 90
0.09831 0.42477 -1.07055 104 93 78
0.09901 0.42406 -1.07035 89 65 59
0.09963 0.42475 -1.06984 110 92 84
0.10821 0.42495 -1.06891 143 143 128
0.10753 0.42423 -1.06915 139 137 121
0.10891 0.42496 -1.06875 150 152 135
0.10961 0.42424 -1.06855 153 156 136
0.11586 0.42580 -1.07634 118 120 113
0.11659 0.42506 -1.07614 127 129 111
0.11677 0.42587 -1.07691 126 128 116
0.11747 0.42662 -1.07667 128 130 114
0.11748 0.42588 -1.07669 130 132 112
0.11749 0.42513 -1.07670 131 133 111
0.09660 0.42387 -1.06891 130 128 116
0.09739 0.42393 -1.06932 120 116 99
0.09831 0.42405 -1.07053 102 89 75
0.09901 0.42334 -1.07033 89 62 60
0.09965 0.42404 -1.06988 109 88 84
0.10844 0.42432 -1.07001 142 141 122
0.10776 0.42360 -1.07025 136 137 121
0.10918 0.42434 -1.07000 150 151 131
0.10988 0.42362 -1.06980 151 154 133
0.11625 0.42519 -1.07796 117 118 106
0.11698 0.42444 -1.07776 124 127 107
0.09618 0.42328 -1.07070 129 130 116
0.09549 0.42399 -1.07090 131 131 116
0.09550 0.42328 -1.07092 129 130 112
0.09551 0.42257 -1.07093 127 128 110
0.09688 0.42329 -1.07056 127 126 111
0.09762 0.42332 -1.07066 119 113 97
0.10865 0.42368 -1.07096 139 141 121
0.10796 0.42295 -1.07120 133 135 119
0.10933 0.42368 -1.07067 147 149 128
0.11004 0.42295 -1.07047 149 152 132
0.11092 0.42376 -1.07113 148 152 125
0.09627 0.42261 -1.07118 127 126 110
0.09704 0.42265 -1.07151 128 125 109
0.09776 0.42267 -1.07149 119 112 98
0.07937 0.41919 -1.03980 133 123 106
0.07998 0.41858 -1.03963 135 128 106
0.09708 0.42195 -1.07167 127 123 106
0.09781 0.42197 -1.07173 118 111 95
0.07947 0.41863 -1.04065 133 124 106
0.08008 0.41801 -1.04048 134 130 109
0.09708 0.42123 -1.07164 119 117 99
0.09809 0.42137 -1.07338 111 106 91
0.10150 0.42137 -1.07198 131 130 110
0.10221 0.42065 -1.07178 118 118 98
0.12049 0.41465 -0.97269 138 141 121
0.12094 0.41512 -0.97254 141 144 122
0.12095 0.41465 -0.97255 138 141 119
0.12096 0.41418 -0.97256 133 137 115
0.09727 0.41745 -1.06823 91 80 65
0.09796 0.41675 -1.06804 83 65 54
0.04718 0.41335 -1.02469 135 129 114
0.04771 0.41280 -1.02453 127 118 105
0.04725 0.41271 -1.02283 137 129 115
0.04674 0.41216 -1.02301 145 135 120
0.04727 0.41215 -1.02265 140 130 117
0.04675 0.41160 -1.02283 146 135 121
0.08053 0.41359 -1.03863 126 121 101
0.08136 0.41369 -1.04049 117 111 89
0.08198 0.41371 -1.04048 108 100 79
0.08258 0.41309 -1.04030 104 95 71
0.04738 0.41148 -1.01986 139 130 114
0.04687 0.41094 -1.02003 145 135 121
0.08047 0.41295 -1.03806 125 120 98
0.07989 0.41233 -1.03826 126 119 102
0.08128 0.41304 -1.03980 119 112 86
0.08189 0.41305 -1.03970 110 102 76
0.04748 0.41083 -1.01717 139 129 113
0.04861 0.41019 -1.01370 115 108 90
0.04912 0.41018 -1.01332 103 97 83
0.04865 0.40963 -1.01278 115 108 91
0.04916 0.40961 -1.01195 103 98 84
0.04968 0.40959 -1.01099 96 92 80
0.05017 0.41011 -1.01082 95 90 77
0.05018 0.40959 -1.01083 93 88 77
0.05019 0.40907 -1.01084 93 87 78
0.05516 0.41054 -1.03454 99 92 76
0.05461 0.40995 -1.03473 93 85 74
0.05573 0.40996 -1.03438 106 98 84
0.05573 0.41055 -1.03465 107 97 84
0.05629 0.40997 -1.03448 111 101 89
0.04816 0.40910 -1.01271 128 122 111
0.04767 0.40858 -1.01288 138 131 124
0.04865 0.40912 -1.01296 114 109 98
0.04916 0.40911 -1.01253 102 98 90
0.04964 0.40913 -1.01277 95 91 84
0.05015 0.40861 -1.01263 95 87 78
0.04815 0.40860 -1.01340 129 124 112
0.04865 0.40861 -1.01329 115 110 101
0.04915 0.40861 -1.01311 103 98 94
0.04965 0.40861 -1.01287 96 90 86
0.05016 0.40809 -1.01273 94 86 76
0.04860 0.40814 -1.01508 116 110 97
0.04908 0.40816 -1.01551 104 98 90
0.04959 0.40816 -1.01556 97 90 82
0.05010 0.40764 -1.01542 93 86 76
0.08053 0.40912 -1.03303 117 107 89
0.07996 0.40852 -1.03322 118 112 92
0.08115 0.40913 -1.03319 111 101 84
0.08173 0.40854 -1.03302 105 96 77
0.08178 0.40915 -1.03349 105 95 76
0.08235 0.40976 -1.03329 103 92 76
0.08236 0.40916 -1.03331 103 93 75
0.08237 0.40855 -1.03332 103 95 76
0.08044 0.40850 -1.03223 116 107 86
0.08107 0.40851 -1.03248 110 101 81
0.08165 0.40792 -1.03232 104 96 78
0.07975 0.40787 -1.03131 116 110 89
0.07917 0.40846 -1.03147 120 114 96
0.07976 0.40727 -1.03132 115 106 86
0.08033 0.40728 -1.03114 114 105 86
0.08037 0.40788 -1.03159 114 107 85
0.08101 0.40790 -1.03195 108 101 81
0.04717 0.40652 -1.01395 144 133 124
0.04666 0.40704 -1.01410 146 136 125
0.04667 0.40651 -1.01411 146 136 125
0.04668 0.40599 -1.01412 147 135 127
0.04716 0.40704 -1.01394 145 134 127
0.08092 0.40729 -1.03114 108 101 83
0.08035 0.40669 -1.03133 113 103 84
0.08150 0.40669 -1.03097 100 94 79
0.08149 0.40729 -1.03100 103 96 78
0.08206 0.40789 -1.03081 102 95 77
0.08207 0.40729 -1.03082 101 94 76
0.08207 0.40670 -1.03084 97 92 78
0.04721 0.40598 -1.01319 143 132 122
0.04671 0.40546 -1.01336 143 137 128
0.04771 0.40546 -1.01305 132 125 116
0.04845 0.40613 -1.02072 114 107 100
0.04893 0.40616 -1.02202 104 95 92
0.04849 0.40558 -1.01985 114 105 95
0.04896 0.40560 -1.02114 103 97 87
0.04949 0.40506 -1.02099 98 92 80
0.04945 0.40562 -1.02218 98 92 82
0.04997 0.40562 -1.02201 94 88 82
0.04998 0.40508 -1.02203 94 88 81
0.05573 0.40567 -1.02115 103 91 80
0.05626 0.40568 -1.02147 109 98 84
0.05679 0.40514 -1.02132 112 102 89
0.04851 0.40503 -1.01928 116 108 95
0.04899 0.40505 -1.02031 104 98 84
0.05521 0.40510 -1.01977 94 84 70
0.05470 0.40456 -1.01995 90 80 69
0.05626 0.40512 -1.02006 109 100 84
0.05679 0.40457 -1.01991 113 101 91
0.04855 0.40448 -1.01815 116 112 97
0.04904 0.40449 -1.01889 105 98 84
0.04955 0.40450 -1.01899 99 91 80
0.05006 0.40450 -1.01883 94 87 83
0.05007 0.40397 -1.01884 95 85 83
0.05522 0.40455 -1.01874 94 83 69
0.05471 0.40401 -1.01891 88 81 70
0.05626 0.40456 -1.01893 110 99 89
0.05679 0.40402 -1.01878 112 101 86
0.07975 0.40484 -1.02607 109 105 86
0.07919 0.40542 -1.02623 112 106 86
0.07920 0.40484 -1.02624 111 106 86
0.07920 0.40426 -1.02626 110 103 87
0.07975 0.40542 -1.02605 109 104 89
0.08036 0.40485 -1.02634 104 99 83
0.08092 0.40544 -1.02615 98 94 84
0.08092 0.40485 -1.02616 99 94 80
0.08093 0.40427 -1.02618 100 93 78
0.04810 0.40394 -1.01694 127 125 109
0.04860 0.40394 -1.01679 117 112 97
0.04911 0.40394 -1.01685 108 99 86
0.04962 0.40395 -1.01665 100 90 81
0.05013 0.40342 -1.01650 95 85 85
0.05522 0.40400 -1.01766 93 84 72
0.05471 0.40346 -1.01783 86 82 67
0.05574 0.40400 -1.01760 103 91 80
0.04813 0.40340 -1.01630 130 124 111
0.04865 0.40340 -1.01555 119 112 100
0.04917 0.40341 -1.01489 109 100 90
0.04969 0.40341 -1.01416 101 90 85
0.05020 0.40288 -1.01401 95 86 85
0.05523 0.40346 -1.01649 91 84 71
0.05472 0.40292 -1.01667 84 81 62
0.05574 0.40346 -1.01650 101 90 77
0.04762 0.40287 -1.01665 137 130 119
0.04712 0.40234 -1.01682 139 131 119
0.04815 0.40287 -1.01568 132 123 112
0.04867 0.40288 -1.01503 121 113 102
0.04919 0.40288 -1.01438 108 101 91
0.04971 0.40288 -1.01356 100 92 85
0.05523 0.40292 -1.01571 90 82 68
0.05473 0.40239 -1.01588 84 81 66
0.05524 0.40239 -1.01572 89 81 69
0.05575 0.40292 -1.01588 100 89 75
0.05626 0.40293 -1.01594 107 96 82
0.05678 0.40240 -1.01579 108 99 84
0.04765 0.40234 -1.01612 138 129 116
0.04715 0.40181 -1.01629 139 131 121
0.04818 0.40235 -1.01500 133 122 112
0.04870 0.40235 -1.01439 121 112 102
0.04922 0.40236 -1.01380 109 102 90
0.04974 0.40236 -1.01297 99 93 84
0.05026 0.40236 -1.01171 94 86 84
0.05075 0.40288 -1.01155 92 84 84
0.05076 0.40237 -1.01156 90 83 81
0.05076 0.40185 -1.01157 91 81 78
0.05575 0.40239 -1.01564 98 88 74
0.05626 0.40239 -1.01565 106 96 81
0.05678 0.40186 -1.01550 109 99 83
0.04766 0.40182 -1.01609 138 127 117
0.04716 0.40129 -1.01626 139 131 120
0.04818 0.40182 -1.01543 133 121 111
0.04869 0.40183 -1.01517 122 112 100
0.04920 0.40183 -1.01474 110 102 90
0.04970 0.40183 -1.01469 99 92 84
0.05022 0.40184 -1.01378 94 84 83
0.05073 0.40132 -1.01364 90 84 76
0.05575 0.40186 -1.01441 98 88 76
0.05626 0.40187 -1.01444 107 96 81
0.05678 0.40134 -1.01429 110 98 84
0.04763 0.40128 -1.01711 137 127 117
0.04713 0.40075 -1.01728 138 130 118
0.04816 0.40129 -1.01634 131 121 112
0.04867 0.40129 -1.01594 121 112 101
0.04919 0.40130 -1.01529 109 103 89
0.04970 0.40130 -1.01507 99 93 83
0.05022 0.40131 -1.01391 92 86 81
0.05073 0.40079 -1.01377 87 86 77
0.05525 0.40134 -1.01349 87 84 72
0.05475 0.40081 -1.01366 83 82 70
0.04759 0.40074 -1.01837 135 126 119
0.04708 0.40021 -1.01854 138 129 119
0.04811 0.40075 -1.01780 130 120 114
0.04863 0.40075 -1.01744 120 112 101
0.04915 0.40076 -1.01706 109 103 88
0.04966 0.40076 -1.01686 98 94 81
0.05017 0.40023 -1.01671 91 89 79
0.05018 0.40077 -1.01611 90 89 78
0.05070 0.40024 -1.01597 86 85 79
0.04754 0.40019 -1.01993 135 125 118
0.04703 0.39965 -1.02010 139 127 117
0.04755 0.39965 -1.01994 136 124 114
0.04807 0.40020 -1.01942 131 121 112
0.04859 0.40020 -1.01896 121 112 99
0.04912 0.40021 -1.01845 108 102 89
0.04963 0.40022 -1.01827 98 94 84
0.04804 0.39965 -1.02055 130 122 109
0.04753 0.39910 -1.02073 135 124 114
0.04856 0.39965 -1.02031 120 113 101
0.04909 0.39966 -1.01971 107 101 92
0.04960 0.39966 -1.01956 98 94 86
0.05013 0.39967 -1.01908 90 88 80
0.05064 0.39967 -1.01892 85 84 79
0.05065 0.39914 -1.01893 87 84 77
0.04804 0.39910 -1.02068 130 122 112
0.04857 0.39911 -1.02027 119 113 104
0.04910 0.39912 -1.01962 107 101 95
0.04962 0.39913 -1.01906 99 94 86
0.05014 0.39914 -1.01866 91 87 78
0.05067 0.39861 -1.01851 89 83 71
0.04754 0.39856 -1.02074 134 126 119
0.04702 0.39856 -1.02091 136 129 120
0.04703 0.39802 -1.02092 136 128 120
0.04805 0.39857 -1.02053 130 121 116
0.04857 0.39857 -1.02037 121 111 105
0.04910 0.39858 -1.01980 108 100 92
0.04962 0.39859 -1.01943 98 94 84
0.05014 0.39859 -1.01935 91 87 75
0.05066 0.39806 -1.01920 87 82 67
0.04756 0.39804 -1.02015 132 127 117
0.04809 0.39805 -1.01973 129 122 114
0.04861 0.39805 -1.01950 121 111 102
0.04913 0.39807 -1.01886 109 101 88
0.04965 0.39807 -1.01854 98 95 81
0.05017 0.39808 -1.01816 91 87 74
0.05069 0.39755 -1.01801 87 82 70
0.04812 0.39753 -1.01900 124 122 107
0.04863 0.39753 -1.01894 118 112 98
0.04915 0.39754 -1.01851 109 101 87
0.04967 0.39755 -1.01808 100 93 80
0.05019 0.39756 -1.01776 92 86 75
0.05071 0.39702 -1.01761 86 81 75
0.04815 0.39701 -1.01839 122 120 103
0.04866 0.39701 -1.01824 116 112 97
0.04918 0.39702 -1.01797 107 101 90
0.04969 0.39703 -1.01761 99 92 82
0.05020 0.39703 -1.01737 91 85 77
0.05072 0.39650 -1.01722 84 82 75
0.04817 0.39649 -1.01797 123 118 100
0.04868 0.39649 -1.01788 118 112 97
0.05022 0.39651 -1.01721 90 87 77
0.05073 0.39598 -1.01706 85 82 73
0.04869 0.39596 -1.01779 118 112 100
0.04819 0.39543 -1.01796 126 118 103
0.04920 0.39596 -1.01762 109 103 91
0.04971 0.39597 -1.01747 99 95 79
0.05022 0.39597 -1.01743 91 87 74
0.05074 0.39544 -1.01728 86 81 73
0.04870 0.39543 -1.01785 121 114 101
0.04920 0.39543 -1.01779 110 104 92
0.04971 0.39543 -1.01776 101 93 81
0.05022 0.39542 -1.01781 93 86 75
0.05074 0.39489 -1.01766 87 81 74
0.04820 0.39490 -1.01775 129 118 110
0.04769 0.39490 -1.01791 130 120 109
0.04770 0.39437 -1.01793 130 122 114
0.04870 0.39490 -1.01782 123 113 106
0.04921 0.39489 -1.01780 112 103 96
0.04971 0.39488 -1.01800 101 93 86
0.05022 0.39488 -1.01808 92 86 78
0.05074 0.39435 -1.01793 86 81 76
0.04819 0.39435 -1.01834 128 119 109
0.04769 0.39381 -1.01851 130 123 115
0.04820 0.39381 -1.01835 128 119 108
0.04871 0.39382 -1.01819 124 115 100
0.04869 0.39434 -1.01848 124 113 104
0.04920 0.39433 -1.01850 114 103 97
0.04970 0.39432 -1.01879 102 93 87
0.05021 0.39431 -1.01889 93 86 80
0.05073 0.39378 -1.01875 87 80 75
0.04970 0.39377 -1.01902 103 92 83
0.05021 0.39377 -1.01901 94 85 76
0.05074 0.39324 -1.01887 85 80 72
0.04969 0.39321 -1.01965 104 93 81
0.05020 0.39320 -1.01973 94 85 73
0.04916 0.39262 -1.02087 114 103 91
0.04864 0.39207 -1.02105 122 111 100
0.05071 0.39263 -1.02028 85 82 72
0.05123 0.39318 -1.02010 83 77 72
0.05123 0.39264 -1.02012 82 78 72
0.05124 0.39210 -1.02013 81 78 76
0.04913 0.39202 -1.02202 113 103 92
0.04862 0.39147 -1.02220 122 111 99
0.04967 0.39206 -1.02109 101 94 86
0.05019 0.39206 -1.02112 91 86 81
0.11245 0.39856 -0.88170 156 143 136
0.11223 0.39878 -0.88176 160 147 138
0.11223 0.39856 -0.88176 159 148 139
0.11224 0.39833 -0.88177 158 146 133
0.11245 0.39878 -0.88169 157 142 134
0.11266 0.39878 -0.88162 153 138 130
0.11265 0.39856 -0.88161 152 137 131
0.11287 0.39879 -0.88154 148 135 123
0.11287 0.39856 -0.88155 148 133 126
0.11287 0.39834 -0.88155 146 131 127
0.04967 0.39149 -1.02162 101 95 88
0.05018 0.39148 -1.02169 91 85 84
0.05070 0.39148 -1.02160 85 78 79
0.05122 0.39149 -1.02143 82 76 78
0.05123 0.39094 -1.02145 82 75 77
0.11239 0.39834 -0.88163 155 143 132
0.11218 0.39811 -0.88171 156 144 129
0.11257 0.39834 -0.88152 151 137 131
0.04809 0.39090 -1.02285 127 116 104
0.04756 0.39144 -1.02300 130 119 111
0.04757 0.39090 -1.02302 131 119 112
0.04757 0.39035 -1.02303 130 119 112
0.04808 0.39144 -1.02284 127 116 106
0.04860 0.39088 -1.02318 122 111 98
0.04911 0.39086 -1.02336 114 104 92
0.04965 0.39089 -1.02265 104 95 88
0.05017 0.39088 -1.02269 94 84 83
0.05069 0.39089 -1.02242 87 76 78
0.05123 0.39035 -1.02227 81 74 74
0.05228 0.39096 -1.02089 81 73 71
0.05175 0.39150 -1.02104 81 75 77
0.05176 0.39096 -1.02105 82 74 77
0.05227 0.39150 -1.02088 81 75 74
0.05279 0.39151 -1.02071 80 76 72
0.05281 0.39042 -1.02074 77 69 59
0.05281 0.39102 -1.01972 78 73 66
0.05333 0.39102 -1.01956 78 72 64
0.05334 0.39048 -1.01957 77 70 58
0.11233 0.39812 -0.88156 153 141 125
0.11212 0.39789 -0.88164 156 141 130
0.11233 0.39789 -0.88157 153 139 126
0.11255 0.39790 -0.88150 148 136 127
0.11244 0.39813 -0.88137 148 136 125
0.11265 0.39791 -0.88131 142 131 125
0.04805 0.39028 -1.02420 127 116 105
0.04753 0.38973 -1.02438 129 118 109
0.04806 0.38973 -1.02421 127 115 103
0.04856 0.39025 -1.02455 122 110 97
0.04909 0.39026 -1.02430 114 102 88
0.04964 0.39030 -1.02352 105 95 84
0.05016 0.39030 -1.02344 93 86 81
0.05069 0.39031 -1.02306 84 78 77
0.05175 0.39038 -1.02172 80 73 71
0.05176 0.38983 -1.02173 78 71 64
0.05228 0.38984 -1.02157 77 72 62
0.05228 0.39039 -1.02136 78 71 65
0.05281 0.38985 -1.02121 75 71 61
0.04854 0.38964 -1.02558 121 109 95
0.04802 0.38908 -1.02576 126 114 101
0.04908 0.38967 -1.02494 112 101 87
0.04964 0.38973 -1.02384 104 93 84
0.05016 0.38974 -1.02356 91 85 81
0.05070 0.38978 -1.02281 83 79 76
0.05124 0.38984 -1.02167 79 74 70
0.05177 0.38930 -1.02152 77 70 61
0.04854 0.38908 -1.02575 120 109 95
0.04802 0.38852 -1.02593 123 114 101
0.04909 0.38912 -1.02488 113 102 88
0.04964 0.38919 -1.02378 102 92 82
0.05018 0.38921 -1.02326 92 83 75
0.05072 0.38927 -1.02225 84 78 67
0.05125 0.38873 -1.02210 79 71 64
0.05127 0.38935 -1.02088 80 73 63
0.05179 0.38881 -1.02073 78 69 65
0.04854 0.38849 -1.02624 119 108 95
0.04801 0.38793 -1.02642 121 111 96
0.04909 0.38856 -1.02514 112 101 87
0.04965 0.38864 -1.02384 101 93 78
0.05074 0.38877 -1.02158 82 76 63
0.05127 0.38823 -1.02143 77 71 64
0.04855 0.38795 -1.02610 117 105 93
0.04803 0.38739 -1.02628 120 109 95
0.04911 0.38804 -1.02472 111 100 87
0.05021 0.38817 -1.02248 90 85 73
0.05076 0.38826 -1.02107 81 75 67
0.05129 0.38772 -1.02092 76 68 61
0.05392 0.38879 -1.01276 71 69 63
0.05341 0.38931 -1.01290 73 68 68
0.05341 0.38879 -1.01292 72 68 62
0.05392 0.38827 -1.01277 70 65 57
0.05441 0.38932 -1.01259 75 73 71
0.05442 0.38889 -1.01130 73 71 65
0.05491 0.38941 -1.01113 75 75 71
0.05492 0.38889 -1.01114 75 72 67
0.05492 0.38837 -1.01115 74 67 61
0.04854 0.38736 -1.02665 116 104 92
0.05079 0.38782 -1.01974 80 74 65
0.05132 0.38728 -1.01959 75 68 58
0.04793 0.38661 -1.02941 120 109 96
0.04739 0.38716 -1.02957 124 112 100
0.04739 0.38660 -1.02958 123 112 100
0.04740 0.38604 -1.02960 121 112 98
0.04794 0.38604 -1.02943 119 110 95
0.04852 0.38674 -1.02744 117 104 92
0.04852 0.38615 -1.02792 116 107 92
0.04799 0.38559 -1.02810 118 109 94
0.04853 0.38559 -1.02794 116 108 92
0.04906 0.38560 -1.02777 110 101 87
