ply
format ascii 1.0
element face 0
property list uchar int vertex_indices
element vertex 1320
property float x
property float y
property float z
property uchar diffuse_red
property uchar diffuse_green
property uchar diffuse_blue
end_header
0.07928 0.45452 -1.07293 100 95 90
0.07970 0.45408 -1.07283 114 106 100
0.08105 0.45432 -1.07193 108 98 91
0.08061 0.45390 -1.07202 107 100 95
0.08143 0.45447 -1.07246 119 109 98
0.08185 0.45402 -1.07236 130 122 110
0.08406 0.45616 -1.07879 94 93 94
0.08361 0.45617 -1.07888 99 90 89
0.08360 0.45572 -1.07888 98 90 90
0.08441 0.45666 -1.08068 102 98 100
0.08482 0.45682 -1.08128 130 120 111
0.08527 0.45635 -1.08117 139 128 115
0.08609 0.45742 -1.08346 134 121 107
0.08561 0.45696 -1.08355 132 123 108
0.08607 0.45695 -1.08345 132 122 104
0.08693 0.45793 -1.08536 157 142 133
0.08739 0.45744 -1.08525 155 144 132
0.09846 0.45623 -1.07735 157 150 138
0.09799 0.45578 -1.07744 156 148 143
0.09891 0.45622 -1.07725 146 137 122
0.09940 0.45649 -1.07827 106 87 80
0.09984 0.45638 -1.07779 84 54 51
0.10029 0.45634 -1.07756 95 60 58
0.10076 0.45639 -1.07770 113 76 84
0.10109 0.45571 -1.07501 145 112 118
0.10130 0.45441 -1.06987 172 154 149
0.10175 0.45450 -1.07018 174 164 155
0.10217 0.45404 -1.07008 173 165 153
0.10534 0.45815 -1.08405 114 109 97
0.10580 0.45807 -1.08370 118 109 101
0.10614 0.45760 -1.08182 128 118 113
0.10668 0.45782 -1.08263 153 149 145
0.11298 0.45698 -1.07858 211 210 192
0.11250 0.45652 -1.07867 210 209 195
0.11336 0.45679 -1.07779 202 202 184
0.11378 0.45669 -1.07736 196 192 180
0.11420 0.45659 -1.07692 191 187 177
0.11469 0.45664 -1.07704 186 183 170
0.11514 0.45660 -1.07685 177 175 160
0.07879 0.45424 -1.07358 86 82 74
0.07834 0.45381 -1.07366 82 80 64
0.07928 0.45406 -1.07280 101 95 88
0.07970 0.45361 -1.07270 113 107 103
0.08102 0.45394 -1.07212 108 99 94
0.08058 0.45351 -1.07221 108 100 93
0.08141 0.45406 -1.07257 117 108 101
0.08183 0.45361 -1.07247 130 123 109
0.08406 0.45563 -1.07847 95 91 92
0.08360 0.45519 -1.07856 98 90 90
0.08441 0.45612 -1.08038 102 97 97
0.08483 0.45627 -1.08093 126 118 108
0.08527 0.45580 -1.08082 138 130 114
0.08649 0.45719 -1.08439 142 129 115
0.08602 0.45673 -1.08448 130 121 106
0.08693 0.45736 -1.08499 156 143 131
0.08739 0.45687 -1.08488 152 145 134
0.09844 0.45575 -1.07727 156 149 135
0.09797 0.45530 -1.07736 157 151 152
0.09889 0.45574 -1.07717 145 135 119
0.09936 0.45586 -1.07761 106 90 80
0.09983 0.45594 -1.07787 83 59 58
0.10027 0.45585 -1.07747 93 60 57
0.10074 0.45592 -1.07767 113 74 74
0.10112 0.45548 -1.07591 144 111 113
0.10130 0.45403 -1.07013 171 154 149
0.10176 0.45415 -1.07056 170 163 152
0.10218 0.45370 -1.07046 168 164 160
0.10519 0.45715 -1.08202 103 97 88
0.10564 0.45666 -1.08191 99 93 91
0.10566 0.45714 -1.08192 105 97 94
0.10611 0.45705 -1.08154 110 104 98
0.10746 0.45839 -1.08667 179 173 156
0.10799 0.45852 -1.08714 188 181 166
0.10846 0.45802 -1.08703 187 180 170
0.11291 0.45639 -1.07813 209 210 192
0.11244 0.45593 -1.07822 212 207 194
0.11330 0.45621 -1.07737 200 201 185
0.11371 0.45609 -1.07684 194 190 175
0.11413 0.45600 -1.07643 192 184 168
0.11460 0.45600 -1.07639 188 179 163
0.11505 0.45597 -1.07622 177 171 155
0.11594 0.45591 -1.07585 183 180 168
0.11639 0.45543 -1.07574 188 187 176
0.07884 0.45363 -1.07289 85 82 69
0.07932 0.45345 -1.07211 101 96 89
0.07974 0.45300 -1.07201 113 108 99
0.08100 0.45352 -1.07219 109 101 91
0.08141 0.45358 -1.07238 116 108 97
0.08183 0.45313 -1.07228 128 120 105
0.08406 0.45512 -1.07826 97 89 88
0.08360 0.45468 -1.07835 97 91 88
0.08405 0.45467 -1.07825 95 90 83
0.08450 0.45466 -1.07816 100 96 82
0.08440 0.45561 -1.08016 101 97 91
0.08484 0.45514 -1.08006 126 118 103
0.08481 0.45582 -1.08096 125 118 105
0.08525 0.45535 -1.08086 137 127 110
0.08649 0.45670 -1.08427 139 130 114
0.08601 0.45624 -1.08436 131 119 107
0.08693 0.45685 -1.08484 153 146 130
0.08738 0.45637 -1.08473 152 145 135
0.09843 0.45528 -1.07723 157 149 149
0.09888 0.45527 -1.07713 145 134 126
0.09936 0.45548 -1.07790 109 90 90
0.09982 0.45548 -1.07787 84 59 66
0.10027 0.45544 -1.07766 92 61 65
0.10074 0.45550 -1.07785 114 74 82
0.10114 0.45519 -1.07657 146 113 116
0.10125 0.45340 -1.06936 169 154 149
0.10171 0.45353 -1.06983 172 164 161
0.10805 0.45825 -1.08800 187 179 168
0.10852 0.45774 -1.08789 186 180 170
0.11287 0.45585 -1.07784 210 207 193
0.11239 0.45539 -1.07793 209 208 199
0.11326 0.45570 -1.07717 198 199 183
0.11365 0.45554 -1.07650 192 192 174
0.11406 0.45541 -1.07595 189 185 166
0.11455 0.45546 -1.07609 184 177 161
0.11500 0.45544 -1.07595 174 167 155
0.11587 0.45534 -1.07544 181 179 172
0.11632 0.45486 -1.07533 186 186 170
0.07790 0.44937 -1.05751 94 89 80
0.07750 0.44898 -1.05758 95 92 85
0.07890 0.45298 -1.07201 84 84 77
0.07846 0.45256 -1.07210 84 80 84
0.07889 0.45255 -1.07201 83 83 87
0.07932 0.45254 -1.07191 98 95 95
0.07929 0.45307 -1.07234 99 96 92
0.07971 0.45263 -1.07224 113 107 96
0.08058 0.45304 -1.07207 109 99 92
0.08016 0.45349 -1.07217 112 104 102
0.08015 0.45305 -1.07216 113 104 99
0.08014 0.45262 -1.07215 114 106 95
0.08056 0.45261 -1.07206 110 99 89
0.08096 0.45317 -1.07252 108 100 88
0.08145 0.45299 -1.07174 116 108 95
0.08186 0.45254 -1.07164 129 120 104
0.09796 0.45480 -1.07718 157 150 145
0.09752 0.45527 -1.07729 159 150 146
0.09751 0.45481 -1.07728 158 150 141
0.09749 0.45435 -1.07727 160 148 138
0.09794 0.45434 -1.07717 157 149 139
0.09841 0.45479 -1.07709 156 145 139
0.09886 0.45478 -1.07699 144 131 121
0.09935 0.45506 -1.07807 109 88 85
0.09981 0.45507 -1.07805 83 56 64
0.10026 0.45502 -1.07782 93 60 72
0.10072 0.45504 -1.07785 108 71 83
0.10120 0.45515 -1.07822 146 112 120
0.10528 0.45662 -1.08372 103 99 100
0.10565 0.45626 -1.08223 105 96 96
0.10677 0.45684 -1.08444 140 131 125
0.10810 0.45796 -1.08880 186 178 170
0.10857 0.45745 -1.08868 187 177 166
0.11285 0.45539 -1.07785 207 206 193
0.11238 0.45493 -1.07794 208 209 195
0.11324 0.45520 -1.07705 199 199 183
0.11362 0.45503 -1.07633 192 192 175
0.11402 0.45489 -1.07572 185 187 169
0.11448 0.45488 -1.07563 177 177 158
0.11490 0.45480 -1.07525 168 164 149
0.11577 0.45471 -1.07477 179 179 166
0.07786 0.44903 -1.05773 93 88 81
0.07746 0.44864 -1.05781 97 91 88
0.08093 0.45281 -1.07286 109 98 87
0.08091 0.45237 -1.07285 108 98 89
0.08134 0.45236 -1.07276 117 105 97
0.08145 0.45250 -1.07153 117 107 95
0.08186 0.45206 -1.07143 129 119 104
0.08438 0.45470 -1.08020 101 95 87
0.08392 0.45471 -1.08030 96 89 83
0.08474 0.45511 -1.08183 123 115 107
0.08520 0.45510 -1.08173 137 126 115
0.08519 0.45463 -1.08172 136 127 116
0.08597 0.45588 -1.08485 131 120 109
0.08552 0.45637 -1.08495 135 122 108
0.08551 0.45589 -1.08495 135 122 111
0.08549 0.45542 -1.08494 132 122 110
0.08596 0.45541 -1.08484 130 122 109
0.08643 0.45591 -1.08492 139 129 118
0.08688 0.45600 -1.08522 153 143 131
0.08734 0.45551 -1.08511 153 143 133
0.09840 0.45439 -1.07735 158 148 138
0.09794 0.45395 -1.07744 157 149 141
0.09886 0.45438 -1.07725 146 134 124
0.09936 0.45471 -1.07854 111 91 87
0.09983 0.45478 -1.07876 82 54 58
0.10028 0.45477 -1.07866 90 56 62
0.10074 0.45476 -1.07856 109 74 83
0.10119 0.45468 -1.07821 142 111 112
0.10759 0.45747 -1.08887 177 170 157
0.10810 0.45752 -1.08905 186 178 167
0.10858 0.45701 -1.08893 187 179 171
0.11442 0.45434 -1.07531 177 176 161
0.11484 0.45424 -1.07486 162 161 149
0.11570 0.45413 -1.07431 180 177 165
0.11614 0.45409 -1.07410 187 186 172
0.11660 0.45454 -1.07401 186 187 168
0.11659 0.45408 -1.07400 188 187 172
0.11658 0.45362 -1.07399 186 187 167
0.07784 0.44866 -1.05785 95 86 83
0.07743 0.44828 -1.05793 99 91 88
0.07782 0.44827 -1.05785 96 88 85
0.08400 0.45387 -1.07867 97 89 87
0.08356 0.45433 -1.07878 96 90 84
0.08355 0.45388 -1.07877 96 91 82
0.08354 0.45342 -1.07876 95 93 84
0.08399 0.45341 -1.07866 95 92 89
0.08435 0.45431 -1.08047 101 94 94
0.08642 0.45545 -1.08495 138 130 118
0.08594 0.45499 -1.08504 130 122 110
0.08687 0.45553 -1.08525 153 141 130
0.08732 0.45505 -1.08514 153 144 133
0.09838 0.45387 -1.07708 156 148 139
0.09792 0.45342 -1.07717 155 150 145
0.09884 0.45386 -1.07698 146 136 127
0.09931 0.45403 -1.07763 109 93 91
0.09982 0.45437 -1.07897 81 56 58
0.10028 0.45436 -1.07887 92 61 60
0.10074 0.45434 -1.07877 109 76 76
0.10127 0.45475 -1.08038 139 112 107
0.10693 0.45647 -1.08686 153 145 136
0.10757 0.45696 -1.08881 177 171 160
0.10805 0.45645 -1.08869 183 178 166
0.10808 0.45701 -1.08896 184 178 166
0.10856 0.45650 -1.08885 183 179 170
0.10934 0.45641 -1.08634 187 181 173
0.10888 0.45691 -1.08645 188 180 167
0.10886 0.45642 -1.08644 187 182 174
0.10885 0.45593 -1.08643 184 183 171
0.11562 0.45354 -1.07378 177 173 161
0.11606 0.45307 -1.07367 185 185 169
0.11610 0.45359 -1.07392 186 184 165
0.11654 0.45312 -1.07382 186 185 169
0.07928 0.45169 -1.07202 96 94 94
0.07885 0.45171 -1.07211 83 82 81
0.07884 0.45127 -1.07210 85 81 76
0.07929 0.45213 -1.07202 97 95 96
0.07972 0.45212 -1.07193 113 106 100
0.07968 0.45177 -1.07230 111 105 100
0.08012 0.45220 -1.07222 114 106 96
0.08010 0.45176 -1.07221 114 106 96
0.08009 0.45133 -1.07220 114 106 93
0.08431 0.45397 -1.08099 98 96 96
0.08384 0.45352 -1.08108 96 93 86
0.08642 0.45490 -1.08464 138 128 119
0.08594 0.45444 -1.08473 129 122 115
0.08686 0.45501 -1.08505 152 141 128
0.08731 0.45453 -1.08494 154 146 134
0.09836 0.45337 -1.07689 156 149 141
0.09790 0.45292 -1.07698 156 148 140
0.09882 0.45336 -1.07679 147 138 129
0.09931 0.45363 -1.07787 111 94 92
0.09980 0.45386 -1.07879 82 58 62
0.10026 0.45385 -1.07869 91 57 63
0.10072 0.45384 -1.07860 112 71 79
0.10124 0.45419 -1.08002 140 106 110
0.10923 0.45563 -1.08516 185 183 166
0.10873 0.45516 -1.08525 185 181 168
0.07922 0.45138 -1.07254 95 91 91
0.07921 0.45095 -1.07253 96 89 92
0.07962 0.45145 -1.07277 111 103 97
0.08004 0.45100 -1.07267 115 107 94
0.08429 0.45353 -1.08106 97 95 93
0.08382 0.45308 -1.08115 97 93 87
0.08641 0.45435 -1.08430 136 127 125
0.08594 0.45389 -1.08439 131 124 116
0.08686 0.45443 -1.08458 150 142 131
0.08732 0.45394 -1.08447 155 147 138
0.09840 0.45327 -1.07842 159 149 134
0.09793 0.45282 -1.07851 158 146 141
0.09885 0.45326 -1.07832 149 136 126
0.09932 0.45334 -1.07861 111 93 87
0.09977 0.45329 -1.07835 84 57 57
0.10023 0.45328 -1.07825 94 57 60
0.10068 0.45327 -1.07815 115 69 77
0.10121 0.45364 -1.07968 144 105 107
0.10909 0.45481 -1.08374 181 182 163
0.10860 0.45434 -1.08383 184 180 163
0.10907 0.45432 -1.08373 185 180 167
0.07959 0.45107 -1.07302 112 103 101
0.07915 0.45064 -1.07311 95 89 91
0.08001 0.45062 -1.07292 116 107 97
0.08427 0.45311 -1.08122 98 96 92
0.08642 0.45376 -1.08377 137 129 122
0.08594 0.45330 -1.08386 137 126 111
0.08687 0.45382 -1.08398 151 143 132
0.08732 0.45333 -1.08387 154 146 137
0.09838 0.45279 -1.07833 158 147 136
0.09791 0.45234 -1.07841 156 147 146
0.09884 0.45278 -1.07823 147 137 124
0.09932 0.45293 -1.07884 108 95 87
0.09976 0.45285 -1.07844 84 59 59
0.10022 0.45284 -1.07835 93 58 59
0.10068 0.45283 -1.07825 112 71 73
0.11593 0.45197 -1.07291 184 183 168
0.11639 0.45242 -1.07282 185 185 171
0.11638 0.45196 -1.07281 187 183 169
0.11636 0.45150 -1.07280 186 181 169
0.07957 0.45065 -1.07307 112 103 102
0.07999 0.45020 -1.07297 118 107 94
0.08644 0.45312 -1.08304 142 129 117
0.08689 0.45317 -1.08322 153 143 131
0.08734 0.45269 -1.08311 154 146 135
0.09931 0.45250 -1.07897 108 95 91
0.09975 0.45237 -1.07834 83 60 65
0.10020 0.45235 -1.07825 89 54 56
0.10066 0.45234 -1.07815 108 68 66
0.10877 0.45308 -1.08045 183 177 166
0.10830 0.45309 -1.08055 183 178 165
0.10829 0.45261 -1.08054 183 179 168
0.10920 0.45296 -1.07991 176 168 164
0.10965 0.45248 -1.07980 163 155 147
0.07915 0.45017 -1.07295 96 87 86
0.07872 0.45018 -1.07305 87 82 79
0.07870 0.44975 -1.07304 88 83 70
0.07913 0.44973 -1.07294 97 87 79
0.07957 0.45019 -1.07299 113 103 97
0.07998 0.44974 -1.07289 121 108 92
0.08559 0.45222 -1.08124 141 131 112
0.08604 0.45224 -1.08128 138 128 111
0.08645 0.45247 -1.08225 141 131 116
0.08690 0.45254 -1.08249 153 143 129
0.08735 0.45206 -1.08238 155 146 134
0.09836 0.45191 -1.07853 156 148 143
0.09789 0.45146 -1.07862 156 148 146
0.09882 0.45190 -1.07843 146 138 127
0.09929 0.45203 -1.07896 109 95 87
0.09974 0.45195 -1.07854 85 59 64
0.10020 0.45194 -1.07844 88 54 55
0.10065 0.45193 -1.07835 106 67 66
0.10104 0.45158 -1.07679 139 105 103
0.10869 0.45243 -1.07968 181 175 165
0.10821 0.45196 -1.07977 180 179 166
0.10912 0.45233 -1.07921 175 166 159
0.10957 0.45185 -1.07911 161 152 146
0.11214 0.45178 -1.07649 199 202 183
0.11170 0.45226 -1.07660 203 204 190
0.11168 0.45179 -1.07659 201 203 184
0.11167 0.45133 -1.07658 199 198 185
0.11259 0.45175 -1.07629 199 200 184
0.11302 0.45169 -1.07598 194 194 179
0.11596 0.45115 -1.07332 186 182 170
0.11641 0.45114 -1.07323 184 183 173
0.11640 0.45068 -1.07322 183 183 169
0.08603 0.45176 -1.08120 140 134 118
0.08646 0.45189 -1.08171 143 138 124
0.08691 0.45141 -1.08160 154 147 134
0.08692 0.45189 -1.08167 152 145 131
0.08736 0.45141 -1.08156 156 147 135
0.09835 0.45151 -1.07878 156 149 147
0.09788 0.45105 -1.07887 154 147 142
0.09881 0.45150 -1.07868 146 140 130
0.09928 0.45158 -1.07899 110 98 88
0.09974 0.45157 -1.07891 81 61 58
0.10020 0.45156 -1.07882 88 56 56
0.10066 0.45155 -1.07872 105 66 67
0.10104 0.45117 -1.07700 138 103 103
0.10862 0.45181 -1.07903 180 175 163
0.10814 0.45135 -1.07912 180 177 165
0.10904 0.45170 -1.07850 171 166 154
0.10949 0.45122 -1.07840 160 153 146
0.11209 0.45124 -1.07615 196 195 183
0.11162 0.45079 -1.07624 191 192 180
0.11208 0.45077 -1.07614 185 186 173
0.11257 0.45126 -1.07620 195 196 184
0.11302 0.45124 -1.07606 191 191 180
0.11349 0.45125 -1.07604 187 186 175
0.07904 0.44951 -1.07390 96 90 80
0.07860 0.44952 -1.07399 89 85 70
0.07859 0.44908 -1.07398 95 90 79
0.09831 0.45077 -1.07756 156 147 141
0.09784 0.45032 -1.07765 154 148 137
0.09876 0.45076 -1.07746 147 141 130
0.09925 0.45098 -1.07841 113 102 91
0.09975 0.45122 -1.07943 82 63 58
0.10021 0.45121 -1.07933 87 57 57
0.10066 0.45120 -1.07923 106 74 71
0.10104 0.45074 -1.07715 133 106 97
0.11439 0.45076 -1.07585 180 175 164
0.11484 0.45029 -1.07575 164 165 157
0.08035 0.44898 -1.07333 120 112 95
0.08036 0.44942 -1.07334 119 109 91
0.08079 0.44941 -1.07325 114 106 91
0.08074 0.44906 -1.07368 116 108 93
0.08513 0.45068 -1.08057 148 140 125
0.08557 0.45020 -1.08046 151 144 128
0.09830 0.45038 -1.07786 155 149 134
0.09783 0.44993 -1.07795 156 146 144
0.09876 0.45037 -1.07776 149 143 123
0.09924 0.45054 -1.07851 113 101 88
0.09973 0.45076 -1.07943 83 61 62
0.10019 0.45074 -1.07933 86 54 59
0.10065 0.45073 -1.07923 103 70 71
0.10112 0.45078 -1.07937 131 103 99
0.11598 0.42929 -0.98031 157 161 144
0.11580 0.42900 -0.97901 106 115 97
0.11600 0.42899 -0.97897 92 106 96
0.11619 0.42878 -0.97892 85 105 105
0.08035 0.44850 -1.07314 124 115 102
0.08071 0.44867 -1.07388 120 114 105
0.08146 0.44902 -1.07545 134 126 115
0.08428 0.44995 -1.07943 144 137 123
0.08472 0.44948 -1.07933 152 143 131
0.08472 0.44999 -1.07958 146 139 125
0.08516 0.44952 -1.07948 153 145 133
0.08515 0.45007 -1.07987 150 142 127
0.08559 0.44960 -1.07977 155 147 135
0.09830 0.45000 -1.07823 154 146 137
0.09783 0.44955 -1.07832 155 147 134
0.09875 0.44999 -1.07813 147 140 125
0.09922 0.45006 -1.07843 115 103 93
0.09971 0.45022 -1.07909 83 63 61
0.10017 0.45021 -1.07900 88 55 57
0.10062 0.45020 -1.07890 106 68 73
0.10110 0.45025 -1.07910 134 103 104
0.11555 0.42907 -0.98033 178 181 163
0.11535 0.42929 -0.98038 179 182 167
0.11534 0.42908 -0.98038 179 182 164
0.11534 0.42887 -0.98038 178 180 165
0.11575 0.42886 -0.98029 175 172 156
0.11579 0.42909 -0.98039 176 178 163
0.11599 0.42888 -0.98034 151 153 141
0.11590 0.42902 -0.98006 154 156 148
0.11558 0.42864 -0.97834 104 113 109
0.11578 0.42843 -0.97829 89 105 108
0.11578 0.42864 -0.97830 90 105 105
0.11598 0.42843 -0.97825 87 107 102
0.08101 0.44859 -1.07554 132 123 116
0.08143 0.44813 -1.07543 147 134 125
0.08178 0.44889 -1.07685 149 137 124
0.09829 0.44959 -1.07849 154 146 140
0.09782 0.44914 -1.07858 155 148 140
0.09828 0.44913 -1.07848 154 149 142
0.09875 0.44958 -1.07839 146 139 131
0.09920 0.44952 -1.07806 115 104 97
0.09966 0.44955 -1.07814 83 63 65
0.10010 0.44907 -1.07803 88 54 61
0.10012 0.44954 -1.07804 88 52 63
0.10057 0.44953 -1.07794 110 65 78
0.10107 0.44972 -1.07881 133 98 105
0.11553 0.42886 -0.98028 176 179 161
0.11532 0.42865 -0.98032 178 180 165
0.11573 0.42864 -0.98024 172 169 151
0.09875 0.44918 -1.07869 145 144 136
0.09828 0.44873 -1.07878 149 146 140
0.09919 0.44908 -1.07814 114 106 102
0.09962 0.44893 -1.07743 86 67 65
0.10053 0.44891 -1.07723 107 63 68
0.10104 0.44915 -1.07832 134 98 98
0.09874 0.44877 -1.07892 142 142 130
0.09918 0.44866 -1.07835 112 105 94
0.09960 0.44841 -1.07710 85 65 61
0.10004 0.44793 -1.07700 86 53 49
0.10005 0.44839 -1.07701 88 55 62
0.10050 0.44838 -1.07691 107 64 73
0.10093 0.44826 -1.07627 133 98 101
0.10157 0.44712 -1.07078 166 156 143
0.10200 0.44666 -1.07068 166 160 152
0.10199 0.44705 -1.07041 165 162 150
0.10243 0.44704 -1.07032 166 165 156
0.10242 0.44660 -1.07031 166 163 148
0.10806 0.44784 -1.07357 175 175 159
0.10760 0.44739 -1.07366 175 171 161
0.10805 0.44738 -1.07356 173 173 160
0.10847 0.44773 -1.07303 169 167 151
0.10890 0.44726 -1.07292 157 155 138
0.10885 0.44757 -1.07221 157 153 136
0.10931 0.44801 -1.07212 166 161 144
0.09827 0.44832 -1.07906 148 147 145
0.09783 0.44880 -1.07916 153 147 139
0.09781 0.44834 -1.07915 150 148 140
0.09780 0.44787 -1.07915 150 147 142
0.09873 0.44831 -1.07896 144 139 132
0.09957 0.44788 -1.07678 86 66 59
0.10001 0.44741 -1.07667 86 55 50
0.10048 0.44786 -1.07658 107 64 63
0.10090 0.44772 -1.07587 133 95 101
0.10117 0.44689 -1.07186 163 141 143
0.10157 0.44674 -1.07107 167 155 155
0.10836 0.44706 -1.07199 169 168 150
0.10879 0.44660 -1.07189 155 154 136
0.10909 0.44670 -1.07018 166 162 145
0.10952 0.44624 -1.07008 177 174 165
0.09826 0.44788 -1.07913 151 148 139
0.09779 0.44742 -1.07922 153 145 134
0.09872 0.44789 -1.07918 146 140 127
0.09955 0.44737 -1.07652 83 65 59
0.09999 0.44690 -1.07642 86 56 57
0.10045 0.44735 -1.07633 100 63 60
0.10080 0.44688 -1.07399 130 96 93
0.10116 0.44649 -1.07207 158 139 131
0.10157 0.44635 -1.07136 165 152 145
0.10789 0.44660 -1.07196 174 173 160
0.10745 0.44661 -1.07206 174 174 167
0.10827 0.44642 -1.07109 166 165 150
0.10870 0.44596 -1.07099 155 155 135
0.10895 0.44598 -1.06884 164 163 149
0.09824 0.44738 -1.07895 152 147 135
0.09777 0.44692 -1.07904 154 147 135
0.09870 0.44739 -1.07898 146 140 127
0.09954 0.44695 -1.07671 85 67 64
0.09998 0.44648 -1.07661 87 57 52
0.10045 0.44693 -1.07652 101 64 69
0.10071 0.44606 -1.07220 128 96 97
0.10115 0.44605 -1.07210 156 137 130
0.10157 0.44593 -1.07148 163 155 143
0.10199 0.44547 -1.07138 162 154 142
0.10238 0.44568 -1.07016 166 159 150
0.10283 0.44611 -1.07007 169 164 151
0.10282 0.44567 -1.07006 169 163 153
0.10784 0.44606 -1.07154 176 170 158
0.10739 0.44562 -1.07163 174 166 156
0.10783 0.44561 -1.07154 176 167 158
0.10820 0.44586 -1.07053 168 163 147
0.10863 0.44540 -1.07043 157 153 137
0.10886 0.44536 -1.06797 163 162 142
0.11588 0.44594 -1.07022 168 169 159
0.11631 0.44548 -1.07011 178 179 167
0.11641 0.44606 -1.07077 176 176 163
0.11687 0.44651 -1.07068 180 176 159
0.11686 0.44605 -1.07067 178 179 164
0.11684 0.44560 -1.07066 179 180 162
0.09914 0.44685 -1.07857 116 108 91
0.09952 0.44645 -1.07651 86 68 56
0.09996 0.44598 -1.07641 85 57 53
0.10043 0.44643 -1.07632 102 62 65
0.10065 0.44539 -1.07110 126 92 90
0.10114 0.44560 -1.07208 154 138 127
0.10156 0.44549 -1.07151 160 153 141
0.10198 0.44503 -1.07140 161 156 149
0.10236 0.44521 -1.07002 165 157 146
0.10235 0.44477 -1.07001 164 156 147
0.10279 0.44476 -1.06992 166 159 150
0.10908 0.44451 -1.06588 177 172 152
0.10936 0.44420 -1.06432 183 178 160
0.10977 0.44376 -1.06422 191 186 175
0.09911 0.44634 -1.07830 116 109 97
0.09949 0.44586 -1.07585 84 67 57
0.09992 0.44539 -1.07575 85 57 55
0.10039 0.44584 -1.07566 98 62 69
0.10060 0.44478 -1.07021 125 91 97
0.10111 0.44508 -1.07170 155 138 134
0.10153 0.44497 -1.07115 162 156 149
0.10195 0.44452 -1.07104 157 158 144
0.10904 0.44402 -1.06561 177 172 157
0.11265 0.44352 -1.06276 110 110 107
0.11221 0.44310 -1.06284 133 128 123
0.09910 0.44589 -1.07837 116 109 102
0.09944 0.44525 -1.07506 84 68 62
0.09988 0.44479 -1.07495 82 53 47
0.10030 0.44505 -1.07396 100 67 69
0.10051 0.44398 -1.06836 125 95 97
0.10107 0.44454 -1.07122 154 138 134
0.10150 0.44447 -1.07086 159 155 144
0.11253 0.44293 -1.06191 128 125 119
0.11210 0.44251 -1.06199 146 145 134
0.07570 0.44177 -1.06119 123 116 100
0.07611 0.44216 -1.06111 137 129 119
0.07592 0.44205 -1.06264 135 129 113
0.07634 0.44245 -1.06256 147 139 126
0.07620 0.44225 -1.06368 147 140 125
0.07662 0.44265 -1.06360 147 138 125
0.07660 0.44224 -1.06359 148 141 125
0.07659 0.44183 -1.06358 150 141 129
0.09908 0.44537 -1.07810 120 110 97
0.09941 0.44466 -1.07435 83 67 56
0.09984 0.44420 -1.07424 82 57 48
0.10030 0.44464 -1.07416 100 63 62
0.10047 0.44344 -1.06784 126 94 94
0.10105 0.44405 -1.07101 157 138 131
0.10147 0.44398 -1.07061 160 153 142
0.10190 0.44353 -1.07050 160 152 141
0.10191 0.44398 -1.07055 160 156 145
0.10236 0.44441 -1.07047 163 161 152
0.10235 0.44397 -1.07046 162 160 148
0.10234 0.44352 -1.07045 162 154 142
0.07560 0.44151 -1.06195 124 114 107
0.07590 0.44165 -1.06269 136 126 121
0.07612 0.44196 -1.06433 148 138 131
0.07651 0.44154 -1.06423 150 140 131
0.09905 0.44482 -1.07760 121 111 97
0.09940 0.44425 -1.07455 83 70 59
0.09983 0.44378 -1.07444 85 54 54
0.10029 0.44423 -1.07435 97 62 59
0.10049 0.44312 -1.06846 125 90 92
0.10100 0.44346 -1.07023 156 134 132
0.10142 0.44337 -1.06972 162 152 144
0.10184 0.44292 -1.06962 160 155 142
0.07565 0.44101 -1.06143 126 112 108
0.07590 0.44123 -1.06261 136 124 123
0.07608 0.44158 -1.06450 148 137 132
0.07648 0.44116 -1.06440 149 140 129
0.09905 0.44444 -1.07803 119 110 102
0.09939 0.44380 -1.07457 85 67 65
0.09982 0.44333 -1.07446 83 55 58
0.10028 0.44378 -1.07437 98 59 65
0.10047 0.44267 -1.06837 125 90 92
0.10100 0.44304 -1.07036 154 136 130
0.10141 0.44294 -1.06979 161 153 144
0.10183 0.44249 -1.06968 162 154 142
0.07566 0.44057 -1.06123 123 110 100
0.07525 0.44017 -1.06131 117 109 97
0.09811 0.44390 -1.07769 149 143 134
0.09767 0.44437 -1.07779 149 144 131
0.09766 0.44391 -1.07778 149 142 135
0.09765 0.44345 -1.07778 148 142 128
0.09810 0.44344 -1.07768 148 142 128
0.09902 0.44387 -1.07747 121 109 107
0.09938 0.44335 -1.07457 84 65 69
0.10026 0.44330 -1.07427 96 61 71
0.10051 0.44243 -1.06947 122 89 98
0.10097 0.44254 -1.07004 154 136 137
0.10139 0.44248 -1.06969 160 152 143
0.09852 0.44322 -1.07647 145 137 125
0.09806 0.44278 -1.07656 152 140 128
0.09938 0.44297 -1.07500 83 70 70
0.09981 0.44250 -1.07490 81 54 54
0.09983 0.44296 -1.07491 79 54 56
0.10027 0.44295 -1.07481 93 59 62
0.10095 0.44208 -1.06990 152 132 126
0.10137 0.44201 -1.06953 160 149 136
0.10181 0.44200 -1.06944 160 152 140
0.10225 0.44243 -1.06935 163 157 149
0.10224 0.44199 -1.06934 159 157 145
0.10223 0.44155 -1.06933 156 157 146
0.09848 0.44261 -1.07559 149 136 124
0.09802 0.44216 -1.07568 150 139 135
0.09893 0.44259 -1.07543 124 111 102
0.09938 0.44258 -1.07533 83 66 64
0.09981 0.44211 -1.07523 81 53 54
0.10027 0.44255 -1.07514 95 62 62
0.10066 0.44229 -1.07360 120 89 86
0.10092 0.44155 -1.06943 153 134 127
0.10134 0.44150 -1.06910 158 149 138
0.10177 0.44149 -1.06901 156 153 143
0.10219 0.44103 -1.06890 158 154 150
0.09845 0.44203 -1.07487 147 137 130
0.09799 0.44159 -1.07496 148 140 134
0.09889 0.44201 -1.07471 123 111 103
0.09936 0.44208 -1.07509 87 69 63
0.09979 0.44161 -1.07498 85 52 56
0.10024 0.44202 -1.07468 95 63 67
0.10065 0.44186 -1.07374 120 91 91
0.10089 0.44105 -1.06908 149 132 124
0.10132 0.44103 -1.06894 156 148 143
0.10175 0.44102 -1.06885 156 152 149
0.10217 0.44057 -1.06875 158 151 144
0.09841 0.44145 -1.07417 145 137 130
0.09796 0.44101 -1.07426 146 141 130
0.09882 0.44122 -1.07277 124 112 105
0.09935 0.44168 -1.07540 89 68 68
0.10025 0.44165 -1.07520 95 60 59
0.10066 0.44149 -1.07422 120 90 83
0.10086 0.44053 -1.06863 149 131 121
0.10129 0.44052 -1.06855 156 147 134
0.10171 0.44007 -1.06844 156 153 139
0.10172 0.44051 -1.06845 157 150 138
0.10214 0.44006 -1.06835 155 155 138
0.09837 0.44084 -1.07321 143 138 125
0.09792 0.44040 -1.07330 142 143 132
0.09876 0.44056 -1.07151 122 112 100
0.09935 0.44124 -1.07552 88 69 68
0.09979 0.44123 -1.07542 82 52 58
0.10024 0.44122 -1.07533 94 58 62
0.10058 0.44077 -1.07265 119 87 87
0.10083 0.44005 -1.06837 149 133 127
0.10126 0.44004 -1.06829 155 149 139
0.10168 0.43959 -1.06819 154 152 134
0.09835 0.44033 -1.07286 139 137 125
0.09878 0.44027 -1.07243 119 112 102
0.09932 0.44073 -1.07517 85 70 66
0.09976 0.44026 -1.07507 79 50 50
0.09977 0.44072 -1.07507 79 50 51
0.10055 0.44023 -1.07211 117 84 88
0.10078 0.43949 -1.06763 149 130 124
0.10121 0.43948 -1.06755 156 148 136
0.10163 0.43903 -1.06745 156 150 133
0.07553 0.43780 -1.06160 122 111 98
0.07513 0.43781 -1.06168 116 110 95
0.07512 0.43741 -1.06167 117 109 95
0.09788 0.43982 -1.07248 144 141 131
0.09745 0.44028 -1.07258 143 144 129
0.09744 0.43983 -1.07257 144 143 129
0.09743 0.43938 -1.07256 143 139 121
0.09787 0.43937 -1.07247 144 138 123
0.09832 0.43978 -1.07220 142 136 124
0.09875 0.43972 -1.07181 121 114 100
0.09930 0.44024 -1.07497 84 70 62
0.10019 0.44020 -1.07467 94 56 60
0.10055 0.43985 -1.07252 118 83 86
0.10073 0.43890 -1.06667 147 126 118
0.10116 0.43889 -1.06659 155 145 131
0.10157 0.43844 -1.06649 153 150 135
0.09829 0.43924 -1.07166 142 135 121
0.09784 0.43881 -1.07175 144 139 121
0.09873 0.43928 -1.07183 122 112 98
0.09927 0.43973 -1.07460 88 69 60
0.09972 0.43972 -1.07451 82 51 48
0.10017 0.43970 -1.07440 93 56 58
0.10055 0.43946 -1.07290 116 81 84
0.07559 0.43688 -1.06084 119 112 97
0.07558 0.43647 -1.06084 119 111 98
0.07597 0.43646 -1.06075 124 115 105
0.09827 0.43877 -1.07151 140 135 121
0.09782 0.43834 -1.07159 144 140 127
0.09872 0.43880 -1.07167 121 113 102
0.09925 0.43920 -1.07413 88 73 68
0.09969 0.43919 -1.07403 80 53 56
0.10014 0.43918 -1.07395 92 57 61
0.10053 0.43898 -1.07265 116 82 82
0.09825 0.43831 -1.07137 138 134 123
0.09872 0.43842 -1.07206 120 112 103
0.09923 0.43874 -1.07412 87 69 65
0.09968 0.43873 -1.07402 80 53 49
0.10012 0.43873 -1.07395 90 58 55
0.10058 0.43876 -1.07415 112 81 77
0.09776 0.43761 -1.06972 144 138 123
0.09734 0.43806 -1.06982 142 137 126
0.09732 0.43762 -1.06981 143 138 126
0.09731 0.43718 -1.06980 141 138 123
0.09774 0.43717 -1.06971 143 136 120
0.09823 0.43782 -1.07106 141 134 119
0.09870 0.43795 -1.07193 123 111 99
0.09923 0.43834 -1.07445 87 68 60
0.09968 0.43833 -1.07435 80 51 46
0.10012 0.43832 -1.07425 90 55 55
0.10058 0.43836 -1.07448 114 82 86
0.10846 0.43644 -1.06154 158 159 141
0.10886 0.43601 -1.06144 163 165 147
0.10881 0.43633 -1.06077 165 165 149
0.10921 0.43589 -1.06067 171 173 152
0.10918 0.43626 -1.06030 176 172 156
0.10959 0.43583 -1.06020 177 176 156
0.08405 0.43706 -1.06971 152 143 131
0.08364 0.43751 -1.06981 145 137 130
0.08363 0.43707 -1.06980 143 136 124
0.08362 0.43664 -1.06979 142 134 123
0.08449 0.43749 -1.06963 154 148 132
0.08448 0.43705 -1.06962 155 147 134
0.09823 0.43745 -1.07156 142 132 117
0.09778 0.43701 -1.07165 141 136 123
0.09871 0.43761 -1.07262 126 109 101
0.09922 0.43792 -1.07462 91 68 64
0.09967 0.43790 -1.07452 80 50 49
0.10012 0.43790 -1.07450 88 54 55
0.10058 0.43795 -1.07475 112 82 84
0.07625 0.43484 -1.05796 125 112 102
0.07585 0.43446 -1.05804 118 108 98
0.09824 0.43710 -1.07221 141 133 121
0.09779 0.43666 -1.07229 140 135 130
0.09871 0.43723 -1.07305 123 110 101
0.09925 0.43762 -1.07570 91 69 69
0.09970 0.43761 -1.07561 80 49 58
0.10015 0.43762 -1.07566 89 52 60
0.10060 0.43761 -1.07552 112 79 82
0.07669 0.43436 -1.05733 133 122 111
0.08774 0.43660 -1.07228 148 140 123
0.08732 0.43705 -1.07238 155 145 131
0.08731 0.43661 -1.07238 154 144 130
0.08819 0.43703 -1.07220 143 138 125
0.08817 0.43659 -1.07219 144 137 120
0.08816 0.43614 -1.07218 144 137 120
0.09925 0.43724 -1.07622 89 71 65
0.09970 0.43722 -1.07609 79 50 51
0.10016 0.43721 -1.07599 88 52 52
0.10060 0.43719 -1.07584 111 78 76
0.10080 0.43636 -1.07008 141 121 112
0.10120 0.43625 -1.06930 148 139 129
0.10162 0.43580 -1.06920 146 143 131
0.10164 0.43624 -1.06921 147 144 136
0.10206 0.43579 -1.06911 149 146 131
0.07624 0.43404 -1.05789 121 113 100
0.07584 0.43366 -1.05796 118 112 92
0.07665 0.43400 -1.05759 129 121 107
0.09925 0.43683 -1.07655 87 73 59
0.10015 0.43680 -1.07629 87 55 56
0.10060 0.43678 -1.07615 109 77 81
0.10081 0.43599 -1.07057 140 119 117
0.10121 0.43587 -1.06975 147 139 131
0.10163 0.43542 -1.06965 146 142 135
0.07612 0.43377 -1.05877 120 113 100
0.07572 0.43338 -1.05885 116 111 94
0.07654 0.43373 -1.05850 128 120 110
0.09923 0.43633 -1.07626 87 73 64
0.09968 0.43632 -1.07616 76 51 47
0.10013 0.43628 -1.07589 86 52 53
0.10056 0.43623 -1.07548 105 73 79
0.10080 0.43557 -1.07074 137 115 116
0.10122 0.43550 -1.07021 147 138 134
0.10164 0.43504 -1.07011 146 142 130
0.07598 0.43353 -1.05992 119 113 97
0.07557 0.43314 -1.06000 116 110 98
0.07597 0.43313 -1.05991 119 113 93
0.07641 0.43348 -1.05952 128 119 106
0.09921 0.43583 -1.07598 90 71 65
0.09966 0.43582 -1.07589 79 51 44
0.10010 0.43579 -1.07565 85 53 48
0.10053 0.43571 -1.07503 106 75 76
0.10079 0.43511 -1.07064 136 116 114
0.10121 0.43507 -1.07032 146 140 128
0.10164 0.43461 -1.07022 143 142 123
0.07628 0.43322 -1.06059 128 119 97
0.07666 0.43323 -1.06063 140 130 110
0.07708 0.43319 -1.06037 146 138 122
0.07746 0.43278 -1.06027 144 139 131
0.09915 0.43520 -1.07465 90 71 63
0.09960 0.43520 -1.07462 78 51 51
0.10004 0.43516 -1.07438 84 54 57
0.10047 0.43510 -1.07385 106 76 74
0.10077 0.43464 -1.07046 136 119 107
0.10120 0.43463 -1.07036 143 141 120
0.10163 0.43417 -1.07025 143 143 124
0.11430 0.43384 -1.06407 163 166 149
0.11474 0.43426 -1.06399 163 166 150
0.11473 0.43383 -1.06398 164 166 148
0.11472 0.43339 -1.06397 162 163 143
0.07577 0.43294 -1.06158 119 112 95
0.07537 0.43295 -1.06166 117 109 100
0.07536 0.43255 -1.06165 116 108 98
0.07616 0.43294 -1.06157 127 120 99
0.07656 0.43293 -1.06146 138 130 112
0.07698 0.43289 -1.06112 144 137 124
0.07737 0.43247 -1.06103 146 137 131
0.09911 0.43467 -1.07405 89 72 64
0.09956 0.43464 -1.07385 78 50 55
0.10000 0.43463 -1.07374 83 53 62
0.10043 0.43457 -1.07328 104 76 78
0.10073 0.43413 -1.06996 133 115 107
0.10117 0.43413 -1.06990 145 139 123
0.10159 0.43367 -1.06980 144 141 128
0.11436 0.43348 -1.06461 162 163 143
0.11478 0.43303 -1.06451 161 162 143
0.07571 0.43259 -1.06198 119 111 96
0.07529 0.43219 -1.06206 116 109 96
0.07609 0.43261 -1.06209 126 120 102
0.07650 0.43258 -1.06186 138 130 114
0.07693 0.43254 -1.06152 144 135 124
0.07732 0.43212 -1.06143 148 137 133
0.09909 0.43416 -1.07366 90 71 65
0.09952 0.43412 -1.07333 78 51 53
0.09997 0.43411 -1.07325 83 53 60
0.10039 0.43404 -1.07268 104 74 79
0.10071 0.43367 -1.06976 134 111 108
0.10115 0.43368 -1.06985 146 136 125
0.10158 0.43322 -1.06975 144 140 127
0.07580 0.43207 -1.06105 119 111 97
0.07539 0.43167 -1.06113 116 110 93
0.07619 0.43207 -1.06102 124 117 103
0.07659 0.43206 -1.06097 136 127 115
0.07702 0.43201 -1.06060 145 134 126
0.07740 0.43160 -1.06051 145 138 129
0.09908 0.43372 -1.07375 89 69 59
0.09951 0.43368 -1.07339 78 49 47
0.09995 0.43365 -1.07316 82 50 54
0.10036 0.43353 -1.07224 104 73 73
0.10070 0.43323 -1.06980 132 112 102
0.10113 0.43321 -1.06964 144 135 122
0.10155 0.43276 -1.06954 146 139 127
0.07620 0.43164 -1.06087 122 118 106
0.07659 0.43164 -1.06082 134 128 118
0.07703 0.43159 -1.06039 142 135 128
0.07741 0.43117 -1.06030 145 137 125
0.09949 0.43320 -1.07318 75 45 48
0.09993 0.43316 -1.07283 78 47 48
0.10033 0.43302 -1.07168 103 72 67
0.10066 0.43272 -1.06925 132 112 99
0.10110 0.43272 -1.06926 144 134 118
0.10152 0.43227 -1.06916 142 138 122
0.11111 0.43201 -1.06337 157 160 143
0.11069 0.43245 -1.06347 162 165 146
0.11068 0.43202 -1.06346 162 165 144
0.11067 0.43159 -1.06345 162 164 141
0.11112 0.43244 -1.06338 158 161 144
0.11154 0.43243 -1.06329 159 161 141
0.11159 0.43207 -1.06382 157 158 138
0.11203 0.43249 -1.06374 157 160 137
0.11202 0.43206 -1.06373 155 158 133
0.11201 0.43162 -1.06372 153 153 132
0.12217 0.41789 -0.94876 151 143 131
0.12230 0.41789 -0.94874 155 149 135
0.12229 0.41776 -0.94873 156 148 136
0.07623 0.43119 -1.06050 122 117 105
0.07705 0.43115 -1.06009 142 135 125
0.07743 0.43073 -1.06000 144 136 124
0.09902 0.43271 -1.07287 88 71 64
0.09946 0.43267 -1.07252 75 46 47
0.09990 0.43266 -1.07243 80 46 47
0.10030 0.43253 -1.07136 102 70 69
0.10065 0.43228 -1.06925 132 110 105
0.10109 0.43228 -1.06928 143 133 120
0.10151 0.43183 -1.06918 143 138 124
0.10699 0.43129 -1.06100 143 143 127
0.10659 0.43172 -1.06109 150 149 131
0.10658 0.43130 -1.06109 150 145 129
0.10657 0.43088 -1.06108 148 144 128
0.10742 0.43170 -1.06092 134 137 122
0.07626 0.43074 -1.06008 122 115 102
0.07666 0.43073 -1.05997 133 125 114
0.07707 0.43070 -1.05974 142 133 122
0.07745 0.43029 -1.05965 145 135 125
0.09899 0.43219 -1.07224 86 72 62
0.09942 0.43216 -1.07196 75 47 43
0.09986 0.43213 -1.07176 80 47 48
0.10027 0.43203 -1.07091 101 70 75
0.10064 0.43183 -1.06922 132 109 108
0.10108 0.43184 -1.06929 142 133 123
0.10150 0.43139 -1.06919 141 139 121
0.10701 0.43091 -1.06133 143 144 130
0.10658 0.43049 -1.06142 147 142 131
0.07625 0.43034 -1.06005 122 114 99
0.07585 0.42994 -1.06013 117 110 93
0.07666 0.43032 -1.05990 133 122 110
0.07708 0.43028 -1.05952 143 131 121
0.07747 0.42986 -1.05943 144 134 126
0.08294 0.43165 -1.07142 135 132 120
0.09895 0.43165 -1.07146 86 71 59
0.09938 0.43163 -1.07124 73 48 40
0.09982 0.43161 -1.07111 80 49 46
0.10026 0.43159 -1.07092 100 70 70
0.10063 0.43140 -1.06928 131 110 104
0.10107 0.43141 -1.06940 141 133 118
0.10149 0.43096 -1.06930 141 137 125
0.11268 0.43100 -1.06585 144 144 128
0.11312 0.43143 -1.06576 137 138 116
0.11306 0.43095 -1.06535 132 134 114
0.11350 0.43137 -1.06526 127 129 109
0.11343 0.43088 -1.06479 121 123 101
0.11383 0.43084 -1.06442 125 128 107
0.07614 0.43003 -1.06089 122 114 97
0.07574 0.42964 -1.06097 117 109 93
0.07656 0.43000 -1.06063 131 122 108
0.07700 0.42995 -1.06018 141 131 121
0.07738 0.42954 -1.06008 143 135 123
0.08289 0.43126 -1.07188 138 130 116
0.08330 0.43130 -1.07220 135 128 115
0.08371 0.43133 -1.07245 140 138 121
0.08413 0.43087 -1.07235 145 142 124
0.09890 0.43109 -1.07043 88 73 59
0.09934 0.43108 -1.07032 73 49 39
0.09978 0.43107 -1.07023 79 48 39
0.10022 0.43107 -1.07026 99 68 60
0.10061 0.43095 -1.06915 130 108 98
0.10106 0.43099 -1.06952 141 131 118
0.10149 0.43053 -1.06942 139 137 128
0.11270 0.43059 -1.06609 140 142 122
0.11225 0.43016 -1.06618 141 142 124
0.11306 0.43051 -1.06540 128 128 108
0.11342 0.43044 -1.06477 114 116 92
0.11379 0.43039 -1.06426 117 119 96
0.11421 0.42994 -1.06416 115 112 90
0.07614 0.42962 -1.06083 121 112 96
0.07573 0.42922 -1.06090 116 109 92
0.07655 0.42959 -1.06059 130 120 107
0.07698 0.42956 -1.06026 140 131 119
0.07736 0.42914 -1.06017 143 136 120
0.08288 0.43083 -1.07192 136 128 111
0.08330 0.43038 -1.07182 131 125 108
0.08328 0.43086 -1.07224 133 126 109
0.08368 0.43091 -1.07269 140 136 118
0.09886 0.43056 -1.06965 90 73 64
0.09930 0.43056 -1.06965 75 47 42
0.09974 0.43055 -1.06958 81 44 39
0.10018 0.43056 -1.06969 100 66 59
0.10062 0.43057 -1.06977 129 107 99
0.10107 0.43059 -1.06990 140 131 120
0.11299 0.43003 -1.06495 127 130 108
0.11336 0.42996 -1.06437 110 111 91
0.11377 0.42952 -1.06427 110 111 89
0.11375 0.42993 -1.06404 111 111 92
0.11417 0.42948 -1.06394 114 112 86
0.07627 0.42908 -1.05953 120 110 94
0.07587 0.42868 -1.05961 115 109 95
0.07662 0.42912 -1.05992 129 117 103
0.07702 0.42909 -1.05972 138 130 114
0.08283 0.43045 -1.07242 135 129 111
0.08325 0.42999 -1.07231 131 126 113
0.08367 0.43047 -1.07271 139 133 115
0.08409 0.43002 -1.07261 146 138 120
0.08410 0.43047 -1.07268 145 140 121
0.08455 0.43090 -1.07260 146 142 123
0.08453 0.43046 -1.07259 147 140 125
0.08452 0.43002 -1.07258 147 138 123
0.09884 0.43009 -1.06941 89 73 66
0.09928 0.43008 -1.06928 75 47 42
0.09971 0.43007 -1.06921 80 44 39
0.10014 0.43006 -1.06913 100 65 60
0.10061 0.43014 -1.06983 129 106 98
0.10106 0.43015 -1.06994 138 130 114
0.10149 0.43012 -1.06970 139 137 122
0.10194 0.43055 -1.06961 139 138 131
0.10192 0.43011 -1.06961 140 137 127
0.10191 0.42967 -1.06960 140 135 126
0.07698 0.42872 -1.05999 137 129 114
0.07737 0.42831 -1.05990 141 134 120
0.07742 0.42867 -1.05953 143 135 122
0.07782 0.42906 -1.05945 142 136 122
0.07781 0.42866 -1.05944 142 135 124
0.07780 0.42826 -1.05944 141 134 119
0.08279 0.43006 -1.07291 136 131 119
0.08321 0.42961 -1.07281 129 125 118
0.08367 0.43001 -1.07245 140 132 115
0.08409 0.42956 -1.07235 145 139 127
0.09882 0.42963 -1.06917 91 73 66
0.09927 0.42966 -1.06948 75 47 43
0.09971 0.42966 -1.06949 80 45 42
0.10014 0.42965 -1.06938 97 65 60
0.10061 0.42972 -1.07008 125 106 93
0.10105 0.42971 -1.06996 135 131 111
0.10147 0.42925 -1.06986 138 137 119
0.10148 0.42969 -1.06980 137 137 120
0.10190 0.42923 -1.06970 140 136 120
0.09881 0.42917 -1.06899 92 74 69
0.09925 0.42919 -1.06920 75 47 43
0.09968 0.42918 -1.06911 79 47 41
0.10012 0.42919 -1.06916 95 66 58
0.10058 0.42924 -1.06972 124 105 92
0.10102 0.42924 -1.06975 137 131 112
0.07569 0.42802 -1.06095 116 108 99
0.09879 0.42874 -1.06901 93 74 63
0.09924 0.42876 -1.06928 76 45 40
0.09967 0.42875 -1.06919 78 43 38
0.10011 0.42874 -1.06910 96 62 55
0.10056 0.42878 -1.06955 127 103 92
0.10101 0.42879 -1.06964 139 127 113
0.10145 0.42879 -1.06969 140 134 121
0.10189 0.42878 -1.06959 140 136 123
0.10187 0.42834 -1.06958 140 135 127
0.10948 0.42834 -1.06542 150 151 134
0.10992 0.42877 -1.06534 155 157 132
0.10991 0.42833 -1.06533 156 153 135
0.10989 0.42789 -1.06532 151 152 129
0.09879 0.42832 -1.06922 92 75 62
0.09924 0.42835 -1.06958 73 47 41
0.09967 0.42834 -1.06948 77 46 42
0.10059 0.42843 -1.07050 126 104 93
0.10102 0.42839 -1.07011 138 128 115
0.10144 0.42794 -1.07001 138 133 122
0.10144 0.42835 -1.06971 139 133 122
0.10186 0.42790 -1.06961 138 134 122
0.10954 0.42798 -1.06618 150 151 134
0.10996 0.42753 -1.06608 147 149 124
0.11263 0.42796 -1.06613 137 136 118
0.11219 0.42753 -1.06621 140 141 119
0.09878 0.42788 -1.06930 89 75 63
0.10058 0.42799 -1.07056 124 102 96
0.10098 0.42791 -1.06964 137 129 117
0.10141 0.42745 -1.06954 136 134 117
0.10958 0.42759 -1.06670 149 148 128
0.10957 0.42715 -1.06669 149 145 125
0.11000 0.42714 -1.06660 144 143 119
0.09877 0.42745 -1.06932 90 73 64
0.10101 0.42753 -1.07039 136 127 114
0.10143 0.42707 -1.07029 134 132 120
0.09876 0.42703 -1.06957 93 78 67
0.10061 0.42721 -1.07181 120 97 90
0.10101 0.42711 -1.07071 134 125 116
0.07611 0.42592 -1.06010 118 109 99
0.09875 0.42658 -1.06951 91 78 61
0.10062 0.42681 -1.07227 122 96 90
0.10100 0.42668 -1.07087 135 123 114
0.10142 0.42663 -1.07029 134 129 119
0.10187 0.42706 -1.07020 136 130 118
0.10186 0.42662 -1.07020 135 129 119
0.10184 0.42617 -1.07019 134 132 116
0.07654 0.42548 -1.05962 122 110 99
0.07613 0.42508 -1.05970 118 107 95
0.07684 0.42554 -1.06036 132 119 108
0.07723 0.42553 -1.06032 139 127 119
0.07764 0.42592 -1.06024 142 131 122
0.07763 0.42552 -1.06023 141 130 125
0.07762 0.42512 -1.06023 140 131 130
0.09875 0.42617 -1.06982 90 78 61
0.10059 0.42633 -1.07195 122 95 87
0.10097 0.42621 -1.07049 136 123 109
0.10141 0.42619 -1.07030 135 130 113
0.10183 0.42573 -1.07020 132 131 113
0.07648 0.42511 -1.06001 120 110 97
0.07607 0.42471 -1.06009 117 109 94
0.07680 0.42516 -1.06067 128 118 108
0.08363 0.42595 -1.07121 130 124 113
0.08318 0.42552 -1.07130 127 122 111
0.08409 0.42589 -1.07052 138 131 118
0.08451 0.42544 -1.07042 141 133 125
0.09875 0.42576 -1.07021 88 77 64
0.09924 0.42589 -1.07189 70 44 36
0.09969 0.42587 -1.07179 73 35 35
0.10013 0.42586 -1.07170 89 54 52
0.10064 0.42599 -1.07338 120 94 85
0.10101 0.42584 -1.07154 135 122 105
0.10144 0.42539 -1.07144 133 127 108
0.10142 0.42578 -1.07076 133 128 109
0.10184 0.42532 -1.07065 132 129 111
0.10752 0.42559 -1.06904 130 134 112
0.10710 0.42605 -1.06914 136 131 116
0.10709 0.42561 -1.06913 132 133 116
0.10707 0.42516 -1.06912 131 134 119
0.10754 0.42604 -1.06904 135 131 114
0.10799 0.42560 -1.06920 123 127 102
0.10842 0.42559 -1.06903 124 123 103
0.10888 0.42560 -1.06919 135 134 114
0.10937 0.42563 -1.06965 137 140 118
0.10980 0.42517 -1.06954 144 144 119
0.11032 0.42566 -1.07013 134 135 112
0.07639 0.42476 -1.06068 119 111 99
0.07673 0.42479 -1.06120 126 119 111
0.07712 0.42479 -1.06121 135 127 124
0.08363 0.42550 -1.07101 129 124 112
0.08409 0.42544 -1.07033 137 130 121
0.08450 0.42500 -1.07023 140 133 128
0.09874 0.42533 -1.07041 89 76 57
0.09924 0.42545 -1.07204 72 45 34
0.10012 0.42543 -1.07185 89 52 51
0.10062 0.42552 -1.07309 120 92 87
0.10100 0.42540 -1.07153 134 120 105
0.10142 0.42494 -1.07142 134 127 108
0.10753 0.42516 -1.06918 129 132 115
0.10707 0.42473 -1.06927 131 134 118
0.10799 0.42517 -1.06938 123 126 102
0.10842 0.42472 -1.06928 119 121 101
0.11096 0.42535 -1.07193 101 103 86
0.11141 0.42534 -1.07188 98 100 86
0.11181 0.42530 -1.07140 114 117 99
0.11221 0.42525 -1.07084 131 134 111
0.12126 0.41578 -0.94939 117 108 93
0.12114 0.41591 -0.94942 116 108 92
0.12114 0.41578 -0.94942 117 105 87
0.12139 0.41565 -0.94936 125 116 102
0.07630 0.42441 -1.06146 119 112 99
0.07664 0.42444 -1.06192 126 119 109
0.07703 0.42444 -1.06194 135 125 117
0.07742 0.42402 -1.06185 138 129 115
0.07744 0.42442 -1.06174 140 128 119
0.07785 0.42482 -1.06166 140 131 121
0.07784 0.42441 -1.06165 140 131 121
0.07783 0.42400 -1.06164 138 131 121
0.08408 0.42500 -1.07029 135 130 119
0.08449 0.42456 -1.07019 141 133 128
0.09873 0.42490 -1.07062 91 76 59
0.09921 0.42498 -1.07175 73 45 35
0.09965 0.42497 -1.07165 72 38 31
0.10010 0.42496 -1.07156 86 52 50
0.10058 0.42502 -1.07241 118 90 90
0.10098 0.42494 -1.07144 134 120 108
0.10141 0.42448 -1.07134 133 128 108
0.10756 0.42476 -1.06973 128 131 113
0.10711 0.42432 -1.06982 130 132 113
0.11093 0.42488 -1.07179 111 111 93
0.11141 0.42490 -1.07205 107 108 90
0.11179 0.42484 -1.07131 119 120 100
0.11222 0.42481 -1.07104 127 129 104
0.11316 0.42482 -1.07125 97 101 84
0.11419 0.42488 -1.07220 96 101 85
0.11468 0.42489 -1.07241 106 107 90
0.11514 0.42489 -1.07236 118 115 99
0.11561 0.42533 -1.07227 116 118 97
0.11559 0.42488 -1.07226 117 116 97
0.11558 0.42442 -1.07226 118 115 95
0.07618 0.42407 -1.06240 120 110 96
0.07653 0.42410 -1.06280 126 117 105
0.07692 0.42410 -1.06280 134 125 111
0.08274 0.42464 -1.07117 137 133 118
0.08230 0.42422 -1.07125 144 136 126
0.08320 0.42460 -1.07060 127 124 108
0.08362 0.42415 -1.07050 124 118 106
0.08364 0.42457 -1.07029 124 121 105
0.09781 0.42438 -1.06951 124 123 102
0.09737 0.42395 -1.06959 125 122 104
0.09825 0.42438 -1.06953 116 112 92
0.09873 0.42447 -1.07085 91 75 62
0.09921 0.42455 -1.07198 74 45 40
0.09965 0.42454 -1.07188 73 37 35
0.10009 0.42453 -1.07179 86 52 53
0.10056 0.42456 -1.07230 115 91 89
0.10098 0.42451 -1.07171 132 120 106
0.10761 0.42436 -1.07040 129 130 110
0.10715 0.42392 -1.07049 130 131 110
0.11097 0.42446 -1.07227 122 123 103
0.11139 0.42443 -1.07190 118 120 101
0.11179 0.42439 -1.07143 124 123 105
0.11224 0.42439 -1.07139 123 125 106
0.11318 0.42439 -1.07151 92 97 78
0.11369 0.42441 -1.07198 90 96 82
0.11425 0.42446 -1.07273 94 98 86
0.11471 0.42446 -1.07268 105 105 90
0.11518 0.42445 -1.07272 118 114 96
0.11562 0.42398 -1.07261 117 115 92
0.07609 0.42371 -1.06305 118 108 92
0.07568 0.42331 -1.06313 115 105 86
0.07648 0.42371 -1.06309 123 115 100
0.07688 0.42371 -1.06311 131 125 107
0.07727 0.42329 -1.06302 135 128 110
0.07727 0.42371 -1.06314 136 130 113
0.07767 0.42370 -1.06306 136 130 118
0.07766 0.42328 -1.06305 136 129 114
0.08274 0.42420 -1.07102 139 132 120
0.08230 0.42377 -1.07110 143 136 126
0.08320 0.42415 -1.07045 129 122 111
0.08361 0.42371 -1.07035 124 118 108
0.08408 0.42410 -1.06975 133 126 115
0.08450 0.42365 -1.06965 138 131 118
0.08454 0.42405 -1.06910 139 132 122
0.08498 0.42447 -1.06901 141 132 130
0.08497 0.42404 -1.06900 140 132 122
0.08495 0.42360 -1.06900 138 132 120
0.09781 0.42396 -1.06972 124 122 103
0.09736 0.42353 -1.06981 125 123 106
0.09824 0.42395 -1.06963 116 113 93
0.09872 0.42403 -1.07081 89 77 65
0.09919 0.42409 -1.07180 72 45 43
0.09963 0.42408 -1.07171 72 36 35
0.10007 0.42407 -1.07161 86 53 51
0.10052 0.42407 -1.07167 114 93 85
0.10096 0.42406 -1.07157 129 119 106
0.10139 0.42360 -1.07147 132 126 110
0.10139 0.42404 -1.07134 132 127 109
0.10185 0.42447 -1.07125 131 130 110
0.10183 0.42402 -1.07125 130 130 109
0.10182 0.42358 -1.07124 130 128 109
0.11129 0.42392 -1.07111 128 130 113
0.11166 0.42387 -1.07041 126 127 113
0.11208 0.42384 -1.07004 117 119 107
0.11305 0.42387 -1.07055 90 93 76
0.11348 0.42340 -1.07045 88 89 75
0.11364 0.42394 -1.07165 89 91 76
0.11408 0.42347 -1.07155 93 94 81
0.11426 0.42402 -1.07290 94 95 83
0.11470 0.42355 -1.07280 101 102 86
0.11472 0.42401 -1.07291 103 102 88
0.11516 0.42354 -1.07280 113 111 92
0.11521 0.42402 -1.07304 116 112 93
0.11565 0.42354 -1.07294 115 112 89
0.07614 0.42326 -1.06251 116 107 91
0.07573 0.42287 -1.06259 115 106 85
0.07652 0.42327 -1.06265 121 114 99
0.07688 0.42328 -1.06291 130 123 106
0.08276 0.42373 -1.07055 138 131 123
0.08232 0.42331 -1.07063 142 136 125
0.08321 0.42370 -1.07009 128 122 114
0.08362 0.42325 -1.06999 124 118 108
0.08410 0.42363 -1.06925 133 126 113
0.09781 0.42356 -1.07029 124 120 104
0.09736 0.42312 -1.07038 124 121 104
0.09824 0.42354 -1.07007 118 111 94
0.09871 0.42360 -1.07105 90 78 66
0.09917 0.42362 -1.07152 71 44 41
0.09960 0.42316 -1.07142 72 36 32
0.09961 0.42361 -1.07143 72 35 34
0.10005 0.42360 -1.07134 85 51 47
0.10053 0.42365 -1.07219 113 90 82
0.10094 0.42359 -1.07134 130 119 106
0.11134 0.42351 -1.07172 137 137 115
0.11162 0.42340 -1.07015 128 130 108
0.11253 0.42339 -1.07011 97 99 89
0.11296 0.42293 -1.07001 88 89 78
0.07653 0.42285 -1.06244 121 114 100
0.07689 0.42286 -1.06275 130 122 108
0.07728 0.42244 -1.06265 135 127 119
0.07724 0.42288 -1.06313 136 127 114
0.07765 0.42287 -1.06304 138 129 116
0.07764 0.42246 -1.06303 138 128 121
0.08274 0.42330 -1.07064 138 131 125
0.08230 0.42288 -1.07072 142 136 120
0.08319 0.42327 -1.07023 128 122 115
0.08360 0.42283 -1.07013 124 119 107
0.08408 0.42320 -1.06929 131 124 113
0.08450 0.42276 -1.06919 137 130 125
0.08454 0.42316 -1.06872 137 130 121
0.08496 0.42315 -1.06863 138 131 124
0.08495 0.42272 -1.06862 137 131 122
0.09782 0.42318 -1.07127 122 118 103
0.09737 0.42274 -1.07136 123 116 102
0.09826 0.42316 -1.07105 118 109 94
0.09868 0.42311 -1.07043 93 80 66
0.09916 0.42319 -1.07172 71 46 38
0.10004 0.42317 -1.07153 83 49 46
0.10053 0.42323 -1.07256 111 88 79
0.10095 0.42318 -1.07189 129 119 103
0.10139 0.42317 -1.07180 131 125 110
0.10183 0.42316 -1.07170 130 125 112
0.10182 0.42271 -1.07170 129 125 111
0.11029 0.42327 -1.07496 139 137 119
0.11073 0.42280 -1.07486 143 146 123
0.07690 0.42244 -1.06248 128 122 110
0.08272 0.42287 -1.07068 139 131 120
0.08228 0.42244 -1.07077 143 136 119
0.08316 0.42285 -1.07038 130 122 113
0.08358 0.42240 -1.07028 122 118 104
0.08405 0.42279 -1.06968 129 124 115
0.08446 0.42235 -1.06959 136 130 124
0.09783 0.42277 -1.07195 121 117 101
0.09738 0.42233 -1.07204 122 115 100
0.09827 0.42276 -1.07183 116 110 93
0.09865 0.42263 -1.06979 92 79 62
0.10058 0.42286 -1.07389 110 87 81
0.10097 0.42277 -1.07251 129 116 99
0.10142 0.42277 -1.07257 130 123 106
0.11028 0.42281 -1.07501 138 141 122
0.11072 0.42234 -1.07491 142 143 120
0.11260 0.42254 -1.07095 94 97 81
0.11304 0.42207 -1.07085 92 91 75
0.07655 0.42200 -1.06200 120 113 96
0.07691 0.42202 -1.06235 128 120 109
0.07723 0.42205 -1.06301 135 125 119
0.07764 0.42204 -1.06292 137 127 120
0.07762 0.42163 -1.06292 136 126 110
0.08315 0.42241 -1.07041 129 124 108
0.08356 0.42197 -1.07031 122 117 102
0.08403 0.42236 -1.06978 128 123 117
0.09828 0.42236 -1.07265 116 108 92
0.09864 0.42220 -1.07007 92 76 61
0.10055 0.42238 -1.07353 108 87 78
0.10100 0.42237 -1.07349 127 115 97
0.10144 0.42236 -1.07334 128 121 101
0.10187 0.42190 -1.07323 127 124 106
0.10186 0.42232 -1.07276 129 124 107
0.10232 0.42276 -1.07267 129 128 114
0.10229 0.42186 -1.07265 129 125 107
0.11021 0.42232 -1.07441 137 138 120
0.11065 0.42184 -1.07430 141 142 118
