ply
format ascii 1.0
element face 0
property list uchar int vertex_indices
element vertex 1316
property float x
property float y
property float z
property uchar diffuse_red
property uchar diffuse_green
property uchar diffuse_blue
end_header
0.09983 0.44503 -1.06478 185 180 173
0.10056 0.44424 -1.06450 185 179 173
0.10718 0.44535 -1.06521 189 191 173
0.10640 0.44458 -1.06539 183 183 167
0.10736 0.44496 -1.06259 200 201 182
0.10808 0.44417 -1.06231 203 204 184
0.10840 0.44464 -1.06029 204 205 187
0.10895 0.44451 -1.05932 198 199 183
0.10967 0.44373 -1.05904 192 190 178
0.11367 0.43143 -0.97369 141 142 137
0.09907 0.44545 -1.07279 122 99 92
0.10652 0.44415 -1.06252 190 190 170
0.10575 0.44338 -1.06270 181 180 167
0.10669 0.44375 -1.05991 199 199 179
0.10741 0.44297 -1.05963 201 203 182
0.10772 0.44344 -1.05762 203 201 183
0.10769 0.44267 -1.05757 201 202 182
0.10837 0.44338 -1.05704 198 195 182
0.11063 0.44338 -1.05655 191 194 178
0.10987 0.44262 -1.05673 186 187 169
0.11134 0.44261 -1.05628 195 198 176
0.11132 0.44334 -1.05615 197 199 183
0.11203 0.44257 -1.05588 196 199 177
0.10799 0.41568 -0.87504 210 199 184
0.10770 0.41540 -0.87511 211 203 187
0.10798 0.41539 -0.87502 210 200 184
0.10807 0.41563 -0.87470 208 198 181
0.10814 0.41551 -0.87389 189 177 168
0.10817 0.41545 -0.87350 178 165 155
0.10843 0.41516 -0.87340 174 161 151
0.10661 0.44344 -1.06295 190 187 171
0.10584 0.44267 -1.06313 181 180 168
0.10752 0.41515 -0.87352 198 189 174
0.10763 0.41511 -0.87323 188 175 166
0.10782 0.41509 -0.87304 177 164 155
0.10809 0.41480 -0.87294 174 160 154
0.07959 0.43855 -1.04100 160 149 133
0.08026 0.43855 -1.04079 167 156 138
0.08024 0.43785 -1.04075 162 156 141
0.10634 0.44250 -1.06187 187 187 174
0.10749 0.41480 -0.87305 187 176 163
0.10788 0.41482 -0.87311 177 164 157
0.10814 0.41453 -0.87301 175 159 158
0.07953 0.43782 -1.04074 159 149 136
0.08018 0.43711 -1.04049 165 157 136
0.08134 0.43823 -1.04316 160 156 143
0.08304 0.43852 -1.04480 170 165 160
0.08371 0.43780 -1.04455 171 164 151
0.10608 0.44158 -1.06085 185 186 177
0.10391 0.42425 -0.94126 167 168 163
0.07944 0.43706 -1.04028 158 152 130
0.08010 0.43635 -1.04003 164 156 136
0.08113 0.43735 -1.04195 161 156 138
0.08110 0.43665 -1.04190 161 154 136
0.08196 0.43748 -1.04269 167 160 147
0.08262 0.43677 -1.04243 170 164 148
0.10430 0.42394 -0.94223 163 163 156
0.10646 0.41402 -0.87170 184 172 162
0.07933 0.43628 -1.03966 158 151 128
0.08186 0.43671 -1.04219 168 160 145
0.08116 0.43601 -1.04236 160 153 141
0.09810 0.43979 -1.06076 171 163 153
0.09884 0.43978 -1.06053 179 174 160
0.09955 0.43900 -1.06026 176 172 160
0.09915 0.43949 -1.05834 180 176 161
0.09991 0.44024 -1.05816 178 180 167
0.09988 0.43948 -1.05812 181 178 165
0.09986 0.43871 -1.05807 180 176 162
0.10618 0.41368 -0.87133 182 170 159
0.10644 0.41340 -0.87123 173 160 148
0.10654 0.41370 -0.87136 174 159 150
0.10680 0.41341 -0.87126 173 163 148
0.04594 0.43339 -1.03085 169 159 151
0.04529 0.43275 -1.03100 172 166 150
0.04654 0.43273 -1.03062 156 151 135
0.08200 0.43614 -1.04314 163 157 147
0.09776 0.44039 -1.07077 127 113 106
0.09897 0.44068 -1.07269 113 94 96
0.09894 0.44013 -1.06862 138 121 120
0.09801 0.43898 -1.06040 171 159 150
0.09875 0.43897 -1.06017 177 173 160
0.09946 0.43819 -1.05990 175 176 161
0.10620 0.43762 -1.04871 192 193 172
0.10546 0.43689 -1.04888 194 194 177
0.10664 0.43746 -1.04740 188 188 173
0.10482 0.41330 -0.87084 204 195 179
0.10510 0.41330 -0.87077 201 189 175
0.10636 0.41344 -0.87156 180 168 154
0.10662 0.41316 -0.87146 173 161 147
0.10724 0.41345 -0.87141 180 169 149
0.10750 0.41344 -0.87131 186 175 153
0.10776 0.41316 -0.87121 187 174 163
0.04591 0.43272 -1.03067 166 163 146
0.04527 0.43208 -1.03082 171 166 152
0.08300 0.43571 -1.04489 167 159 148
0.08366 0.43498 -1.04464 166 160 141
0.09767 0.43955 -1.07041 128 114 107
0.09867 0.43970 -1.07131 115 93 98
0.09921 0.43954 -1.07001 136 117 122
0.09795 0.43819 -1.06021 170 161 156
0.09869 0.43818 -1.05998 177 176 164
0.09941 0.43741 -1.05971 178 174 156
0.10611 0.43685 -1.04842 190 189 173
0.10651 0.43666 -1.04695 184 182 172
0.10720 0.43592 -1.04669 178 174 166
0.10440 0.41299 -0.87071 208 198 184
0.10415 0.41327 -0.87081 210 202 185
0.10414 0.41300 -0.87079 210 200 184
0.10413 0.41272 -0.87078 209 198 180
0.10439 0.41272 -0.87069 208 196 181
0.10488 0.41304 -0.87092 205 194 181
0.10626 0.41314 -0.87142 180 169 153
0.10682 0.41314 -0.87129 174 162 147
0.04590 0.43211 -1.03087 166 164 148
0.04525 0.43147 -1.03102 172 164 156
0.04650 0.43202 -1.03004 154 151 138
0.04713 0.43201 -1.02985 138 132 127
0.04711 0.43136 -1.02981 139 133 127
0.09745 0.43863 -1.06941 127 114 103
0.09840 0.43874 -1.07005 113 94 91
0.09900 0.43862 -1.06905 139 116 117
0.10624 0.43619 -1.04896 190 189 173
0.10550 0.43545 -1.04913 193 192 178
0.10669 0.43603 -1.04768 184 179 169
0.10738 0.43528 -1.04742 181 179 167
0.10483 0.41275 -0.87084 205 193 180
0.10456 0.41248 -0.87091 205 197 179
0.10511 0.41275 -0.87078 199 187 174
0.10626 0.41287 -0.87141 178 167 152
0.10652 0.41259 -0.87131 170 156 143
0.10649 0.41286 -0.87129 171 159 145
0.10684 0.41287 -0.87131 174 160 148
0.10699 0.41284 -0.87108 182 170 154
0.10725 0.41256 -0.87098 187 174 160
0.04649 0.43140 -1.03021 155 150 140
0.04709 0.43074 -1.02998 139 134 127
0.09734 0.43777 -1.06891 127 112 102
0.09807 0.43698 -1.06863 113 91 84
0.09814 0.43779 -1.06887 117 92 91
0.09889 0.43778 -1.06861 139 117 115
0.10640 0.43554 -1.04963 190 189 177
0.10566 0.43480 -1.04980 190 190 172
0.10709 0.43479 -1.04936 183 185 168
0.10691 0.43542 -1.04859 185 183 170
0.10760 0.43467 -1.04832 179 181 165
0.10823 0.43535 -1.04774 183 184 173
0.10896 0.43535 -1.04758 189 191 179
0.10965 0.43460 -1.04732 190 192 174
0.10748 0.42149 -0.94029 189 187 175
0.10706 0.42196 -0.94046 192 194 175
0.10704 0.42150 -0.94043 191 192 173
0.10794 0.42195 -0.94019 186 183 176
0.10793 0.42149 -0.94016 187 183 176
0.10791 0.42103 -0.94013 184 182 168
0.10637 0.41261 -0.87155 175 164 147
0.10663 0.41233 -0.87145 171 156 143
0.10710 0.41264 -0.87163 174 161 149
0.10701 0.41257 -0.87109 182 170 156
0.10727 0.41229 -0.87099 186 175 158
0.04524 0.43088 -1.03144 172 162 156
0.04464 0.43153 -1.03167 176 167 155
0.04462 0.43089 -1.03163 176 164 152
0.04460 0.43024 -1.03159 172 164 152
0.04647 0.43076 -1.03026 155 150 140
0.09745 0.43707 -1.06952 128 114 101
0.09818 0.43627 -1.06923 114 89 83
0.09897 0.43705 -1.06905 136 113 109
0.10662 0.43492 -1.05055 187 190 172
0.10659 0.43418 -1.05050 186 188 167
0.10862 0.43481 -1.04926 182 184 167
0.10787 0.43408 -1.04943 178 181 163
0.10941 0.43484 -1.04932 188 190 173
0.11011 0.43409 -1.04905 189 191 173
0.10752 0.42105 -0.94038 187 184 172
0.10795 0.42058 -0.94022 183 179 163
0.10668 0.41239 -0.87195 174 162 147
0.10694 0.41211 -0.87185 170 159 142
0.10721 0.41239 -0.87177 175 161 147
0.10696 0.41228 -0.87102 181 170 153
0.10722 0.41200 -0.87092 186 174 161
0.04523 0.43026 -1.03167 168 161 152
0.04521 0.42961 -1.03163 166 160 149
0.04646 0.43014 -1.03040 156 150 137
0.04706 0.43003 -1.02937 140 135 126
0.04770 0.43066 -1.02922 122 115 114
0.04768 0.43002 -1.02918 123 117 111
0.04766 0.42937 -1.02914 126 119 110
0.09742 0.43628 -1.06946 126 112 98
0.09816 0.43548 -1.06917 113 90 84
0.09894 0.43626 -1.06899 135 111 109
0.10893 0.43424 -1.05051 181 184 168
0.10818 0.43350 -1.05068 178 178 161
0.10972 0.43426 -1.05056 188 190 173
0.11043 0.43350 -1.05029 188 190 170
0.10766 0.42064 -0.94069 184 185 166
0.10720 0.42018 -0.94080 186 187 166
0.10809 0.42017 -0.94053 181 177 161
0.11348 0.41531 -0.89636 202 198 177
0.11314 0.41496 -0.89644 202 198 172
0.10631 0.41205 -0.87147 173 163 148
0.10657 0.41177 -0.87137 169 160 140
0.10693 0.41206 -0.87140 175 164 148
0.10654 0.41193 -0.87048 183 171 157
0.10679 0.41165 -0.87038 187 175 162
0.04645 0.42955 -1.03082 159 153 138
0.04706 0.42949 -1.03020 144 138 126
0.04767 0.42883 -1.02997 128 120 109
0.07405 0.42987 -1.02780 142 127 115
0.07339 0.42922 -1.02796 138 127 113
0.07467 0.42920 -1.02757 150 138 122
0.11711 0.43486 -1.06009 190 192 178
0.11638 0.43565 -1.06037 191 193 181
0.11636 0.43487 -1.06032 190 193 179
0.11713 0.43564 -1.06014 191 193 180
0.11789 0.43563 -1.05991 191 192 178
0.11786 0.43485 -1.05986 188 190 176
0.11088 0.41494 -0.89669 208 201 187
0.11054 0.41459 -0.89677 208 203 188
0.11286 0.41483 -0.89542 201 195 173
0.11252 0.41449 -0.89550 203 197 173
0.10632 0.41177 -0.87147 171 163 145
0.10658 0.41149 -0.87137 167 157 139
0.10690 0.41177 -0.87136 175 164 146
0.04579 0.42885 -1.03055 167 163 147
0.04643 0.42888 -1.03064 162 156 140
0.04703 0.42881 -1.02989 147 139 125
0.04764 0.42815 -1.02966 129 123 110
0.07952 0.43098 -1.04160 143 140 119
0.10578 0.41145 -0.87119 179 172 156
0.10604 0.41117 -0.87109 170 163 146
0.10606 0.41145 -0.87113 168 161 144
0.10691 0.41150 -0.87137 174 162 145
0.04453 0.42823 -1.03097 171 167 157
0.04388 0.42759 -1.03112 176 171 160
0.04451 0.42758 -1.03093 172 169 159
0.04515 0.42820 -1.03062 169 164 153
0.04577 0.42817 -1.03017 168 161 148
0.04640 0.42819 -1.03024 164 155 143
0.04700 0.42754 -1.03001 150 143 132
0.04700 0.42809 -1.02926 148 140 128
0.04760 0.42744 -1.02903 130 123 112
0.07949 0.43027 -1.04151 140 134 116
0.08025 0.43033 -1.04184 148 144 119
0.08191 0.43054 -1.04329 155 149 128
0.08257 0.42982 -1.04304 159 153 143
0.08280 0.43068 -1.04432 161 154 138
0.08347 0.42995 -1.04407 157 158 139
0.12513 0.43503 -1.07337 182 184 168
0.12595 0.43584 -1.07318 187 189 170
0.12973 0.43590 -1.07991 184 186 171
0.13057 0.43673 -1.07971 186 188 175
0.10577 0.41122 -0.87160 190 179 163
0.10603 0.41122 -0.87151 179 170 154
0.10629 0.41094 -0.87142 170 162 143
0.10650 0.41120 -0.87126 171 162 145
0.10716 0.41126 -0.87168 179 168 156
0.10742 0.41098 -0.87158 192 180 169
0.04512 0.42750 -1.03009 168 165 155
0.04448 0.42686 -1.03024 174 168 160
0.04510 0.42686 -1.03005 169 166 157
0.04574 0.42747 -1.02966 167 161 150
0.04637 0.42750 -1.02979 164 156 145
0.04697 0.42684 -1.02956 151 144 133
0.07143 0.42734 -1.02340 144 136 117
0.07082 0.42800 -1.02363 143 138 113
0.07080 0.42735 -1.02359 144 137 118
0.07078 0.42670 -1.02355 146 138 121
0.07145 0.42799 -1.02344 141 134 111
0.07207 0.42798 -1.02325 142 131 113
0.07937 0.42950 -1.04087 140 133 115
0.08010 0.42953 -1.04097 150 143 125
0.08075 0.42882 -1.04072 150 144 123
0.08085 0.42957 -1.04123 151 145 126
0.08169 0.42968 -1.04202 153 148 135
0.09905 0.43278 -1.06591 159 148 134
0.12547 0.43436 -1.07455 172 173 161
0.12972 0.43506 -1.07992 174 173 158
0.04570 0.42675 -1.02893 166 162 152
0.04506 0.42611 -1.02908 169 165 153
0.04568 0.42610 -1.02889 165 163 151
0.04633 0.42679 -1.02921 163 157 148
0.04693 0.42614 -1.02898 151 147 134
0.07159 0.42684 -1.02469 145 137 119
0.07219 0.42618 -1.02446 141 129 107
0.07936 0.42880 -1.04085 139 131 114
0.08001 0.42878 -1.04051 150 145 125
0.08169 0.42899 -1.04209 154 147 131
0.09875 0.43184 -1.06454 159 147 130
0.07099 0.42625 -1.02529 146 135 117
0.07038 0.42691 -1.02553 147 139 125
0.07036 0.42626 -1.02549 149 140 124
0.07097 0.42559 -1.02525 146 138 119
0.07157 0.42619 -1.02465 146 133 111
0.07931 0.42808 -1.04068 141 130 112
0.07991 0.42802 -1.03997 152 142 120
0.08056 0.42731 -1.03972 154 147 129
0.08073 0.42812 -1.04070 155 145 123
0.08162 0.42825 -1.04180 157 147 132
0.08228 0.42754 -1.04154 158 152 139
0.08247 0.42836 -1.04258 161 150 139
0.08313 0.42764 -1.04233 161 155 144
0.09188 0.42935 -1.04996 159 152 139
0.09115 0.42862 -1.05013 156 154 140
0.09255 0.42932 -1.04954 150 141 129
0.09821 0.43079 -1.06205 158 143 132
0.10738 0.43010 -1.05388 154 157 140
0.10808 0.42933 -1.05361 160 158 140
0.10792 0.43001 -1.05292 160 161 142
0.10871 0.43003 -1.05294 153 151 132
0.07153 0.42552 -1.02446 144 134 116
0.07088 0.42488 -1.02461 143 134 120
0.07151 0.42487 -1.02442 141 133 120
0.07213 0.42486 -1.02423 142 132 117
0.09162 0.42848 -1.04869 156 151 136
0.09089 0.42776 -1.04886 154 153 139
0.09234 0.42848 -1.04853 150 142 126
0.10735 0.42967 -1.05698 139 139 126
0.10773 0.42951 -1.05532 149 148 134
0.10844 0.42874 -1.05505 162 158 143
0.10911 0.42945 -1.05454 153 150 133
0.10982 0.42868 -1.05427 146 140 130
0.09145 0.42767 -1.04791 153 152 139
0.09073 0.42695 -1.04808 154 150 138
0.09217 0.42767 -1.04774 149 143 128
0.10811 0.42892 -1.05691 151 146 135
0.10949 0.42886 -1.05605 153 148 136
0.11020 0.42808 -1.05578 141 141 128
0.09153 0.42699 -1.04837 154 148 134
0.09080 0.42627 -1.04854 155 148 136
0.09225 0.42699 -1.04824 148 141 123
0.10737 0.42849 -1.06039 153 151 128
0.10785 0.42837 -1.05912 139 137 122
0.10858 0.42759 -1.05884 155 150 133
0.10857 0.42835 -1.05879 151 147 133
0.10928 0.42833 -1.05841 157 153 136
0.10975 0.42821 -1.05713 144 143 128
0.10789 0.42794 -1.06259 157 155 134
0.10852 0.42788 -1.06185 149 145 128
0.09830 0.42702 -1.06280 149 134 122
0.10683 0.42737 -1.06497 161 157 142
0.10605 0.42660 -1.06515 152 151 136
0.10769 0.42740 -1.06512 168 165 144
0.10842 0.42661 -1.06484 172 171 147
0.10830 0.42734 -1.06431 171 168 146
0.10897 0.42729 -1.06369 169 165 144
0.10951 0.42720 -1.06259 159 154 132
0.09865 0.42642 -1.06454 148 135 119
0.10705 0.42668 -1.06593 157 156 137
0.10626 0.42590 -1.06611 154 149 141
0.10789 0.42671 -1.06603 167 165 143
0.10863 0.42591 -1.06575 169 171 149
0.10939 0.42668 -1.06542 170 169 143
0.11004 0.42662 -1.06475 151 151 127
0.07967 0.42307 -1.03908 149 137 123
0.08032 0.42236 -1.03883 152 142 130
0.09870 0.42567 -1.06486 149 133 117
0.10731 0.42600 -1.06704 156 155 140
0.10652 0.42522 -1.06723 151 151 138
0.10816 0.42603 -1.06718 164 164 145
0.10890 0.42522 -1.06689 168 167 146
0.10979 0.42605 -1.06710 165 168 145
0.11071 0.42609 -1.06747 146 148 127
0.11241 0.41450 -0.93787 138 137 122
0.11198 0.41496 -0.93803 141 140 123
0.11197 0.41450 -0.93800 139 138 122
0.11195 0.41404 -0.93797 139 136 120
0.11239 0.41404 -0.93784 140 135 120
0.11289 0.41450 -0.93781 142 142 127
0.09876 0.42493 -1.06522 146 131 119
0.11736 0.42622 -1.07690 150 144 127
0.11813 0.42538 -1.07661 145 140 119
0.11858 0.42635 -1.07824 151 145 124
0.11941 0.42718 -1.07804 152 148 124
0.11936 0.42551 -1.07794 146 140 122
0.11959 0.42641 -1.07873 151 147 124
0.12042 0.42724 -1.07854 153 150 127
0.12056 0.42646 -1.07909 153 148 128
0.12139 0.42728 -1.07889 154 149 130
0.12136 0.42645 -1.07884 154 149 131
0.12195 0.42581 -1.08101 149 145 127
0.12279 0.42664 -1.08081 153 151 132
0.12274 0.42495 -1.08070 145 144 123
0.11409 0.41364 -0.93820 168 169 160
0.11452 0.41317 -0.93803 168 169 161
0.11465 0.41365 -0.93830 166 165 156
0.11508 0.41319 -0.93813 162 162 158
0.11896 0.41418 -0.94384 164 165 156
0.11848 0.41371 -0.94395 166 167 161
0.11940 0.41370 -0.94367 150 151 134
0.09919 0.42355 -1.06736 140 127 112
0.10380 0.42352 -1.06621 153 150 132
0.10383 0.42431 -1.06626 154 154 135
0.10459 0.42430 -1.06602 153 154 134
0.10508 0.42370 -1.06822 152 152 134
0.13574 0.42436 -1.07142 151 154 132
0.13497 0.42520 -1.07171 152 152 132
0.13491 0.42354 -1.07161 146 147 125
0.13576 0.42519 -1.07147 153 154 136
0.13656 0.42518 -1.07123 153 152 134
0.13654 0.42435 -1.07117 149 152 131
0.11411 0.41318 -0.93823 169 171 160
0.09818 0.42300 -1.07039 99 78 68
0.09956 0.42292 -1.06919 134 117 102
0.10523 0.42297 -1.06894 145 144 128
0.13765 0.42360 -1.07189 144 146 125
0.13848 0.42442 -1.07169 153 149 137
0.13878 0.42367 -1.07257 144 146 127
0.13961 0.42449 -1.07238 153 148 134
0.13958 0.42366 -1.07232 144 146 127
0.11434 0.41276 -0.93871 165 167 156
0.11495 0.41279 -0.93891 165 167 157
0.11540 0.41278 -0.93878 161 163 153
0.09684 0.42230 -1.07192 113 108 91
0.09751 0.42226 -1.07121 105 92 79
0.09836 0.42228 -1.07134 98 75 70
0.09898 0.42221 -1.07041 109 81 79
0.09950 0.42211 -1.06896 121 102 92
0.10019 0.42207 -1.06841 123 115 101
0.10089 0.42204 -1.06785 126 120 110
0.10164 0.42203 -1.06756 127 122 109
0.10235 0.42200 -1.06709 129 126 110
0.10432 0.42214 -1.06859 131 127 115
0.10569 0.42234 -1.07099 131 125 111
0.10688 0.42247 -1.07254 130 124 109
0.10852 0.42247 -1.07238 141 140 122
0.13871 0.42282 -1.07239 143 141 121
0.11396 0.41224 -0.93793 154 156 145
0.11488 0.41231 -0.93877 160 162 151
0.08431 0.41978 -1.05039 107 102 87
0.08499 0.41904 -1.05013 103 95 84
0.08516 0.41984 -1.05105 106 101 87
0.08585 0.41910 -1.05079 104 93 83
0.09692 0.42155 -1.07240 100 95 81
0.09761 0.42151 -1.07176 98 84 76
0.09840 0.42150 -1.07160 92 70 64
0.09912 0.42147 -1.07113 102 74 72
0.10716 0.42176 -1.07379 114 107 90
0.10809 0.42180 -1.07416 117 112 97
0.10869 0.42173 -1.07316 128 124 112
0.10936 0.42168 -1.07243 136 133 120
0.11008 0.42165 -1.07195 129 124 110
0.11088 0.42165 -1.07182 119 113 101
0.11164 0.42083 -1.07153 127 122 104
0.13858 0.42197 -1.07205 139 133 117
0.13936 0.42112 -1.07176 143 137 120
0.11183 0.41166 -0.93665 159 161 151
0.11255 0.41170 -0.93711 137 139 132
0.11325 0.41174 -0.93751 125 127 122
0.11416 0.41181 -0.93834 135 138 131
0.11486 0.41185 -0.93872 152 154 145
0.04612 0.41738 -1.03219 164 157 145
0.04549 0.41738 -1.03238 167 160 148
0.04547 0.41673 -1.03234 167 159 149
0.04676 0.41738 -1.03215 159 152 137
0.04739 0.41737 -1.03193 148 141 125
0.04805 0.41743 -1.03275 129 122 107
0.04870 0.41746 -1.03298 111 105 95
0.04934 0.41747 -1.03302 104 98 96
0.05000 0.41812 -1.03287 104 97 90
0.04998 0.41746 -1.03283 103 96 94
0.04996 0.41680 -1.03279 100 97 97
0.09672 0.42068 -1.07145 99 91 81
0.09592 0.41989 -1.07164 105 98 82
0.09744 0.42065 -1.07100 97 83 73
0.09827 0.42067 -1.07106 93 70 59
0.09909 0.42068 -1.07107 99 72 63
0.10822 0.42103 -1.07475 111 104 83
0.10900 0.42102 -1.07449 117 111 95
0.10976 0.42019 -1.07420 124 119 99
0.10970 0.42098 -1.07389 121 116 101
0.11046 0.42016 -1.07360 126 122 102
0.11022 0.42089 -1.07259 124 119 102
0.11098 0.42007 -1.07230 127 121 103
0.11077 0.42081 -1.07140 127 121 104
0.11152 0.42000 -1.07112 128 120 105
0.11154 0.41116 -0.93605 165 168 156
0.11228 0.41121 -0.93654 150 153 143
0.11460 0.41135 -0.93819 123 126 124
0.11570 0.41144 -0.93938 151 153 146
0.11672 0.41153 -0.94040 164 166 155
0.11739 0.41155 -0.94071 159 161 150
0.04605 0.41658 -1.03010 165 155 147
0.04669 0.41661 -1.03045 160 152 140
0.04731 0.41657 -1.02985 150 142 127
0.04796 0.41662 -1.03044 131 124 111
0.04858 0.41661 -1.03025 112 107 101
0.04922 0.41663 -1.03038 103 100 99
0.04983 0.41597 -1.03015 102 98 96
0.09912 0.41989 -1.07127 101 73 67
0.10831 0.42025 -1.07520 119 110 88
0.10750 0.41944 -1.07539 122 111 88
0.10828 0.41943 -1.07515 123 113 88
0.10907 0.41942 -1.07491 124 115 91
0.10904 0.42022 -1.07473 122 114 95
0.11135 0.41068 -0.93565 149 152 144
0.11214 0.41073 -0.93626 136 138 133
0.11534 0.41093 -0.93867 125 127 121
0.11619 0.41098 -0.93933 140 141 134
0.11614 0.41090 -0.93821 131 133 126
0.11667 0.41091 -0.93823 132 134 125
0.02997 0.41331 -0.99243 154 141 121
0.02947 0.41385 -0.99262 170 158 134
0.02946 0.41332 -0.99258 170 157 136
0.02999 0.41385 -0.99246 157 145 120
0.03051 0.41384 -0.99230 151 137 117
0.03047 0.41277 -0.99223 142 132 112
0.03049 0.41331 -0.99239 146 133 117
0.03102 0.41384 -0.99227 150 136 121
0.03100 0.41331 -0.99223 147 136 122
0.04600 0.41584 -1.02861 163 156 141
0.04535 0.41520 -1.02876 163 161 141
0.04598 0.41519 -1.02857 161 157 138
0.04663 0.41586 -1.02884 160 153 135
0.04724 0.41583 -1.02845 150 145 124
0.04789 0.41586 -1.02881 131 127 109
0.04849 0.41582 -1.02801 111 108 97
0.04912 0.41584 -1.02822 103 100 98
0.04973 0.41518 -1.02799 103 98 91
0.09898 0.41906 -1.07068 101 74 77
0.11628 0.41046 -0.93847 106 107 103
0.11680 0.41046 -0.93848 122 123 114
0.02997 0.41275 -0.99207 150 139 117
0.02944 0.41222 -0.99219 169 158 130
0.02996 0.41222 -0.99204 151 143 116
0.03047 0.41221 -0.99188 141 134 109
0.04660 0.41518 -1.02837 159 153 136
0.04596 0.41455 -1.02852 163 155 138
0.04721 0.41517 -1.02802 150 145 127
0.04783 0.41516 -1.02780 131 127 109
0.04842 0.41509 -1.02675 112 107 92
0.04905 0.41509 -1.02667 104 100 90
0.04965 0.41444 -1.02645 101 98 84
0.09867 0.41817 -1.06923 102 79 76
0.04655 0.41448 -1.02739 161 152 138
0.04716 0.41446 -1.02699 151 143 130
0.04775 0.41439 -1.02585 132 126 111
0.04835 0.41436 -1.02514 113 108 94
0.04896 0.41434 -1.02490 103 99 87
0.04956 0.41370 -1.02468 103 96 89
0.02944 0.41167 -0.99178 169 161 136
0.02894 0.41221 -0.99197 173 161 135
0.02893 0.41167 -0.99194 172 161 138
0.02891 0.41114 -0.99190 172 162 143
0.02996 0.41166 -0.99169 155 149 124
0.03046 0.41167 -0.99176 144 138 114
0.03099 0.41220 -0.99164 147 137 113
0.03098 0.41166 -0.99160 147 138 116
0.03096 0.41113 -0.99157 146 138 120
0.04588 0.41376 -1.02605 163 154 141
0.04528 0.41440 -1.02628 165 159 142
0.04526 0.41377 -1.02624 165 158 147
0.04524 0.41313 -1.02620 166 158 149
0.04586 0.41312 -1.02601 163 155 144
0.04651 0.41379 -1.02654 160 151 136
0.04712 0.41377 -1.02619 151 144 131
0.04771 0.41373 -1.02530 133 128 118
0.04828 0.41364 -1.02377 114 109 100
0.04888 0.41362 -1.02335 104 98 91
0.04948 0.41298 -1.02313 102 96 90
0.10894 0.40851 -0.92959 149 154 148
0.10941 0.40851 -0.92957 148 157 145
0.02943 0.41112 -0.99162 171 162 141
0.02890 0.41059 -0.99174 172 162 141
0.02942 0.41059 -0.99158 171 160 136
0.02995 0.41111 -0.99142 159 152 128
0.03046 0.41111 -0.99132 147 140 119
0.03096 0.41057 -0.99112 148 139 119
0.04648 0.41313 -1.02614 159 152 138
0.04584 0.41250 -1.02629 162 156 140
0.04709 0.41312 -1.02585 150 145 132
0.04767 0.41305 -1.02456 133 129 119
0.04822 0.41294 -1.02249 112 111 102
0.04881 0.41290 -1.02186 102 100 91
0.04940 0.41227 -1.02163 102 96 89
0.10936 0.40807 -0.92946 152 154 142
0.10893 0.40764 -0.92957 151 154 144
0.02999 0.41052 -0.99030 163 152 126
0.02997 0.40999 -0.99027 165 155 132
0.03050 0.41051 -0.99007 152 141 117
0.03100 0.40998 -0.98988 148 140 118
0.04648 0.41252 -1.02670 157 153 136
0.04584 0.41189 -1.02685 161 156 140
0.04646 0.41188 -1.02666 156 152 136
0.04708 0.41248 -1.02594 148 146 131
0.04767 0.41184 -1.02571 131 130 117
0.04765 0.41241 -1.02455 130 131 119
0.04825 0.41177 -1.02432 111 110 103
0.04820 0.41231 -1.02249 111 112 102
0.04879 0.41167 -1.02226 103 99 92
0.04877 0.41225 -1.02131 102 101 91
0.04936 0.41161 -1.02109 102 97 85
0.10868 0.40756 -0.92804 150 152 142
0.10825 0.40714 -0.92814 151 152 144
0.11630 0.40641 -0.90572 180 175 155
0.03049 0.40997 -0.98983 153 143 120
0.02997 0.40945 -0.98995 166 157 138
0.03099 0.40943 -0.98964 146 138 116
0.08087 0.41263 -1.03914 129 121 104
0.08017 0.41194 -1.03930 131 121 102
0.08158 0.41263 -1.03914 122 116 98
0.08246 0.41269 -1.04017 115 107 88
0.08312 0.41197 -1.03992 111 106 86
0.10847 0.40711 -0.92761 148 151 141
0.10804 0.40668 -0.92771 151 153 150
0.11227 0.40604 -0.90619 174 169 152
0.11252 0.40603 -0.90589 177 171 155
0.11287 0.40602 -0.90575 180 175 158
0.11324 0.40640 -0.90567 184 178 165
0.11323 0.40602 -0.90564 182 178 161
0.11322 0.40564 -0.90562 181 176 162
0.03607 0.40947 -0.99015 144 137 124
0.03553 0.40894 -0.99027 145 135 118
0.03659 0.40944 -0.98952 160 154 135
0.03712 0.40997 -0.98939 171 164 150
0.03711 0.40942 -0.98893 170 164 142
0.03764 0.40994 -0.98881 174 167 154
0.03763 0.40939 -0.98827 173 167 149
0.03816 0.40991 -0.98815 175 169 154
0.03815 0.40938 -0.98811 173 169 154
0.03813 0.40885 -0.98808 170 169 152
0.07419 0.41133 -1.02699 121 113 95
0.07417 0.41067 -1.02695 117 110 94
0.07490 0.41135 -1.02727 132 127 100
0.07552 0.41068 -1.02704 136 129 100
0.08076 0.41190 -1.03852 128 119 98
0.08006 0.41121 -1.03868 128 122 101
0.08145 0.41190 -1.03843 121 115 89
0.08210 0.41119 -1.03818 112 107 78
0.08235 0.41195 -1.03955 112 107 79
0.08300 0.41124 -1.03930 113 106 83
0.10805 0.40664 -0.92675 147 151 146
0.10763 0.40622 -0.92685 150 153 152
0.10845 0.40621 -0.92660 135 136 129
0.11430 0.40553 -0.90324 180 174 148
0.11465 0.40516 -0.90311 177 171 145
0.03608 0.40886 -0.98841 150 140 121
0.03555 0.40833 -0.98854 146 139 120
0.03659 0.40885 -0.98826 162 152 130
0.03711 0.40885 -0.98810 170 163 139
0.03760 0.40831 -0.98792 171 164 147
0.03762 0.40882 -0.98751 171 167 147
0.03812 0.40828 -0.98732 170 165 150
0.07476 0.41064 -1.02636 131 123 101
0.07410 0.40999 -1.02651 118 112 97
0.07537 0.40997 -1.02612 136 125 97
0.08057 0.41116 -1.03746 124 120 93
0.07988 0.41047 -1.03762 127 123 106
0.08127 0.41116 -1.03743 119 114 85
0.03660 0.40826 -0.98685 162 151 132
0.03711 0.40826 -0.98686 170 160 142
0.03760 0.40773 -0.98667 172 162 144
0.08032 0.41040 -1.03602 125 120 99
0.07964 0.40971 -1.03618 128 121 106
0.08104 0.41040 -1.03608 120 115 92
0.08181 0.41042 -1.03654 113 106 81
0.08248 0.41041 -1.03633 113 104 78
0.02988 0.40789 -0.99068 169 157 133
0.02938 0.40842 -0.99087 171 159 141
0.02936 0.40789 -0.99083 171 160 138
0.02935 0.40736 -0.99080 171 160 140
0.02986 0.40735 -0.99064 168 157 137
0.03608 0.40774 -0.98695 148 141 123
0.03555 0.40722 -0.98707 144 136 115
0.03658 0.40774 -0.98697 159 150 133
0.03709 0.40775 -0.98716 170 159 142
0.03758 0.40721 -0.98698 173 163 145
0.08004 0.40964 -1.03436 123 116 98
0.07936 0.40896 -1.03452 127 121 100
0.08002 0.40895 -1.03432 122 117 96
0.08072 0.40964 -1.03423 122 114 92
0.08147 0.40965 -1.03455 112 106 83
0.08211 0.40895 -1.03431 108 101 76
0.08222 0.40966 -1.03486 110 102 75
0.08291 0.41035 -1.03470 113 102 78
0.08289 0.40965 -1.03466 109 101 73
0.08287 0.40896 -1.03461 108 101 75
0.10651 0.41240 -1.10335 110 99 79
0.10562 0.41152 -1.10356 106 95 81
0.10648 0.41151 -1.10329 111 99 81
0.10734 0.41150 -1.10303 113 103 82
0.10736 0.41239 -1.10309 113 104 85
0.10820 0.41148 -1.10277 113 107 85
0.03606 0.40721 -0.98679 147 140 121
0.03554 0.40668 -0.98691 144 133 113
0.03707 0.40721 -0.98697 169 159 143
0.03757 0.40668 -0.98679 173 161 148
0.07637 0.40874 -1.02852 132 123 100
0.07575 0.40942 -1.02876 135 126 101
0.07573 0.40875 -1.02871 135 128 104
0.07571 0.40808 -1.02867 137 127 109
0.07704 0.40940 -1.02836 127 120 95
0.07702 0.40873 -1.02832 125 118 93
0.08062 0.40893 -1.03371 120 113 93
0.07993 0.40825 -1.03387 124 118 96
0.08131 0.40893 -1.03370 112 105 81
0.08195 0.40823 -1.03346 108 99 85
0.03607 0.40664 -0.98562 148 139 120
0.03555 0.40612 -0.98574 145 134 111
0.03707 0.40664 -0.98569 169 158 144
0.07636 0.40807 -1.02855 132 122 102
0.07570 0.40741 -1.02871 135 127 108
0.07699 0.40739 -1.02831 124 120 97
0.07728 0.40812 -1.03010 125 119 94
0.07795 0.40879 -1.02994 125 117 95
0.07793 0.40811 -1.02990 124 116 92
0.07791 0.40744 -1.02986 119 116 95
0.08045 0.40821 -1.03275 120 114 95
0.07976 0.40753 -1.03291 123 118 90
0.08113 0.40821 -1.03271 111 101 87
0.08177 0.40751 -1.03246 106 100 86
0.08027 0.40750 -1.03178 122 115 94
0.07959 0.40682 -1.03194 124 119 92
0.08091 0.40748 -1.03148 109 102 87
0.08155 0.40679 -1.03123 107 99 88
0.03604 0.40558 -0.98509 149 139 116
0.03552 0.40506 -0.98521 145 136 113
0.03603 0.40505 -0.98506 148 138 117
0.03655 0.40557 -0.98493 158 148 130
0.03706 0.40556 -0.98461 164 155 138
0.03754 0.40503 -0.98443 165 157 140
0.03653 0.40505 -0.98511 157 147 129
0.03601 0.40453 -0.98523 146 139 115
0.03704 0.40504 -0.98471 163 154 137
0.04933 0.40605 -1.02438 101 95 91
0.04992 0.40541 -1.02415 99 93 90
0.10977 0.40189 -0.87707 155 148 131
0.10947 0.40160 -0.87714 154 148 129
0.10976 0.40160 -0.87705 155 149 134
0.03651 0.40453 -0.98538 154 146 126
0.03599 0.40401 -0.98550 143 137 115
0.03702 0.40452 -0.98479 161 152 135
0.03751 0.40399 -0.98460 164 153 142
0.03752 0.40452 -0.98490 164 155 139
0.03804 0.40504 -0.98478 166 159 143
0.03803 0.40451 -0.98475 165 159 142
0.03801 0.40399 -0.98471 165 157 145
0.04865 0.40539 -1.02327 111 104 98
0.04802 0.40476 -1.02342 128 122 109
0.04863 0.40475 -1.02323 110 103 97
0.04924 0.40475 -1.02305 101 94 92
0.04926 0.40538 -1.02305 102 95 92
0.04985 0.40474 -1.02283 99 93 87
0.05465 0.40527 -1.01958 98 89 74
0.05402 0.40465 -1.01972 96 90 67
0.05463 0.40464 -1.01954 96 91 68
0.05528 0.40528 -1.01984 107 98 81
0.05593 0.40528 -1.02026 116 108 88
0.05652 0.40464 -1.02004 118 110 86
0.03651 0.40398 -0.98405 150 142 124
0.03600 0.40347 -0.98417 143 135 116
0.05522 0.40463 -1.01914 104 98 77
0.05587 0.40464 -1.01958 114 106 85
0.07981 0.40463 -1.02519 109 105 84
0.08043 0.40396 -1.02495 111 107 89
0.11020 0.40131 -0.87763 156 147 133
0.10992 0.40131 -0.87772 154 147 130
0.03648 0.40348 -0.98514 148 139 122
0.03596 0.40296 -0.98526 142 135 121
0.05452 0.40399 -1.01815 96 91 71
0.05392 0.40400 -1.01834 96 89 68
0.05390 0.40337 -1.01830 97 89 72
0.05451 0.40336 -1.01811 97 91 74
0.05512 0.40398 -1.01782 103 97 80
0.07850 0.40390 -1.02141 125 115 92
0.07785 0.40326 -1.02157 125 117 96
0.07848 0.40325 -1.02137 123 116 94
0.07921 0.40390 -1.02169 115 110 86
0.07982 0.40324 -1.02145 113 109 89
0.11018 0.40102 -0.87805 153 145 131
0.10989 0.40132 -0.87816 160 154 135
0.10989 0.40102 -0.87814 160 152 138
0.10988 0.40072 -0.87812 159 149 137
0.11017 0.40072 -0.87803 153 142 132
0.11052 0.40101 -0.87803 156 146 131
0.05498 0.40333 -1.01602 102 97 82
0.05437 0.40271 -1.01617 95 90 76
0.05561 0.40332 -1.01626 112 104 89
0.07875 0.40321 -1.01898 117 112 89
0.07810 0.40257 -1.01913 121 118 89
0.07935 0.40255 -1.01875 110 108 85
0.05487 0.40268 -1.01449 100 96 81
0.05425 0.40207 -1.01463 94 88 75
0.05548 0.40268 -1.01461 109 105 84
0.05611 0.40268 -1.01488 116 111 88
0.05671 0.40267 -1.01470 116 110 90
0.05669 0.40205 -1.01466 115 108 88
0.07872 0.40256 -1.01888 114 113 86
0.07807 0.40192 -1.01903 120 119 89
0.05478 0.40206 -1.01335 99 94 80
0.05417 0.40145 -1.01349 93 87 72
0.05538 0.40205 -1.01335 110 102 83
0.05595 0.40143 -1.01313 115 107 85
0.05601 0.40205 -1.01367 115 108 86
0.05658 0.40143 -1.01345 115 108 86
0.07972 0.40188 -1.01713 106 105 80
0.08036 0.40252 -1.01698 108 108 90
0.08032 0.40123 -1.01690 106 101 80
0.03733 0.40144 -0.99268 158 149 132
0.05473 0.40144 -1.01292 98 92 76
0.05412 0.40083 -1.01306 93 85 74
0.05533 0.40143 -1.01282 110 101 82
0.05590 0.40081 -1.01261 114 106 85
0.11141 0.39981 -0.87870 163 153 141
0.11170 0.39950 -0.87859 164 154 144
0.05466 0.40082 -1.01200 99 89 76
0.05405 0.40022 -1.01214 93 86 73
0.05524 0.40081 -1.01177 109 100 83
0.05581 0.40020 -1.01155 111 104 87
0.05464 0.40021 -1.01205 97 89 76
0.05403 0.39961 -1.01219 94 86 74
0.05523 0.40020 -1.01190 106 98 84
0.11212 0.39919 -0.87962 162 154 138
0.11242 0.39919 -0.87953 162 153 138
0.11241 0.39888 -0.87951 164 152 133
0.03674 0.39981 -0.99334 143 136 120
0.03620 0.39927 -0.99347 141 130 111
0.05466 0.39960 -1.01253 95 90 75
0.05405 0.39899 -1.01267 93 87 74
0.05525 0.39959 -1.01240 102 98 80
0.05583 0.39959 -1.01200 108 104 85
0.05643 0.40019 -1.01186 114 106 85
0.05642 0.39958 -1.01182 111 106 87
0.05640 0.39897 -1.01179 113 105 88
0.03672 0.39926 -0.99353 143 134 117
0.03618 0.39872 -0.99366 143 130 114
0.04780 0.39905 -1.02190 134 129 114
0.04721 0.39969 -1.02212 143 136 122
0.04719 0.39906 -1.02208 143 137 119
0.04782 0.39968 -1.02194 134 127 115
0.04843 0.39968 -1.02175 116 110 101
0.04840 0.39904 -1.02146 117 112 103
0.04900 0.39904 -1.02112 101 97 90
0.04963 0.39966 -1.02098 96 92 88
0.04961 0.39903 -1.02094 96 91 87
0.04959 0.39840 -1.02090 96 90 84
0.05467 0.39899 -1.01299 93 90 73
0.05406 0.39838 -1.01313 91 88 73
0.05465 0.39837 -1.01295 91 89 72
0.05526 0.39898 -1.01281 100 97 76
0.05584 0.39897 -1.01238 109 103 82
0.05641 0.39835 -1.01216 114 103 90
0.03669 0.39871 -0.99442 144 131 116
0.03614 0.39816 -0.99455 142 131 114
0.03667 0.39816 -0.99439 142 133 112
0.04713 0.39843 -1.02079 143 137 118
0.04655 0.39907 -1.02102 147 139 124
0.04653 0.39844 -1.02098 146 140 124
0.04773 0.39843 -1.02044 135 130 112
0.04833 0.39842 -1.02013 118 113 98
0.04894 0.39841 -1.01996 102 97 85
0.04952 0.39778 -1.01974 95 91 87
0.05531 0.39836 -1.01371 100 96 78
0.05588 0.39774 -1.01349 109 102 88
0.05590 0.39835 -1.01350 111 101 85
0.05647 0.39773 -1.01328 111 102 90
0.03773 0.39814 -0.99476 159 152 137
0.03824 0.39758 -0.99457 164 157 140
0.04654 0.39780 -1.02191 145 140 122
0.04593 0.39781 -1.02210 147 145 126
0.04710 0.39781 -1.02042 142 136 118
0.04770 0.39780 -1.02009 134 128 111
0.04829 0.39780 -1.01939 118 113 100
0.04887 0.39780 -1.01867 102 98 90
0.05471 0.39775 -1.01415 91 89 74
0.05412 0.39775 -1.01433 91 88 71
0.05410 0.39714 -1.01430 92 86 73
0.05531 0.39774 -1.01397 100 96 82
0.03770 0.39757 -0.99590 159 152 134
0.03821 0.39701 -0.99570 163 156 141
0.04590 0.39718 -1.02173 147 145 126
0.04531 0.39782 -1.02196 149 149 130
0.04588 0.39655 -1.02169 148 143 124
0.04649 0.39655 -1.02151 144 140 124
0.04650 0.39718 -1.02137 144 140 123
0.04707 0.39719 -1.01989 142 135 119
0.04767 0.39718 -1.01960 135 127 112
0.04825 0.39718 -1.01894 119 112 102
0.04882 0.39718 -1.01789 102 98 94
0.04942 0.39717 -1.01770 95 91 89
0.05004 0.39779 -1.01756 93 90 88
0.05002 0.39717 -1.01752 93 88 87
0.05000 0.39654 -1.01748 93 87 81
0.05472 0.39713 -1.01450 93 86 76
0.05410 0.39651 -1.01464 91 84 74
0.05470 0.39651 -1.01446 93 84 75
0.05531 0.39712 -1.01431 100 94 82
0.05589 0.39649 -1.01409 107 99 81
0.05592 0.39711 -1.01423 106 101 86
0.05651 0.39710 -1.01405 108 102 86
0.05649 0.39649 -1.01401 107 101 80
0.04702 0.39657 -1.01883 141 135 122
0.04640 0.39596 -1.01898 144 141 122
0.04762 0.39657 -1.01864 134 128 113
0.04821 0.39656 -1.01828 120 112 101
0.04878 0.39656 -1.01735 104 96 90
0.04938 0.39656 -1.01716 95 89 83
0.04996 0.39593 -1.01694 92 87 80
0.05533 0.39649 -1.01474 101 92 79
0.05590 0.39587 -1.01452 106 100 80
0.04697 0.39596 -1.01794 139 136 122
0.04758 0.39595 -1.01788 131 129 114
0.04817 0.39595 -1.01769 118 114 100
0.04876 0.39595 -1.01704 103 98 87
0.04936 0.39594 -1.01694 94 90 81
0.04994 0.39531 -1.01672 91 86 78
0.05475 0.39587 -1.01546 90 87 76
0.05415 0.39588 -1.01564 89 86 76
0.05413 0.39526 -1.01560 90 85 74
0.05535 0.39586 -1.01533 98 94 79
0.05593 0.39524 -1.01511 106 100 79
0.04578 0.39534 -1.01925 150 144 124
0.04520 0.39597 -1.01947 153 145 128
0.04518 0.39534 -1.01944 153 147 130
0.04580 0.39596 -1.01929 150 143 122
0.04638 0.39534 -1.01881 144 139 119
0.04694 0.39535 -1.01758 139 135 117
0.04755 0.39534 -1.01763 131 129 113
0.04816 0.39533 -1.01765 117 117 101
0.04874 0.39532 -1.01721 102 102 89
0.04935 0.39531 -1.01728 93 91 82
0.04993 0.39468 -1.01705 89 85 80
0.05470 0.39526 -1.01501 91 87 75
0.05409 0.39465 -1.01516 91 84 68
0.05530 0.39525 -1.01488 98 94 78
0.05588 0.39462 -1.01466 107 99 79
0.04516 0.39472 -1.01923 149 148 131
0.04458 0.39535 -1.01945 155 149 133
0.04456 0.39473 -1.01941 153 150 132
0.04454 0.39411 -1.01937 152 148 132
0.04575 0.39472 -1.01873 146 142 125
0.04634 0.39473 -1.01806 143 137 118
0.04691 0.39474 -1.01703 137 134 113
0.04751 0.39473 -1.01705 130 128 110
0.04812 0.39471 -1.01716 117 117 102
0.04874 0.39470 -1.01747 103 102 92
0.04935 0.39468 -1.01775 93 90 86
0.05470 0.39463 -1.01528 92 84 69
0.05409 0.39402 -1.01543 91 83 69
0.05468 0.39401 -1.01524 90 83 66
0.05530 0.39463 -1.01505 98 92 76
0.04516 0.39408 -1.01996 149 147 131
0.04453 0.39346 -1.02010 152 148 131
0.04574 0.39409 -1.01899 144 141 125
0.04632 0.39410 -1.01828 141 136 119
0.04689 0.39412 -1.01702 137 133 115
0.04750 0.39411 -1.01708 129 128 109
0.04810 0.39409 -1.01716 118 118 100
0.04874 0.39406 -1.01790 103 103 92
0.04936 0.39404 -1.01842 93 90 86
0.04995 0.39341 -1.01820 87 85 74
0.04999 0.39402 -1.01879 88 84 81
0.05061 0.39464 -1.01865 88 84 78
0.05059 0.39401 -1.01861 87 82 80
0.05057 0.39338 -1.01857 86 83 77
0.05526 0.39401 -1.01477 97 90 74
0.05465 0.39340 -1.01492 90 81 69
0.05584 0.39401 -1.01431 107 98 82
0.05646 0.39462 -1.01417 111 100 80
0.05644 0.39400 -1.01413 110 100 85
0.05642 0.39339 -1.01409 108 101 88
0.04520 0.39339 -1.02260 149 146 127
0.04457 0.39276 -1.02275 151 146 131
0.04811 0.39345 -1.01799 119 117 97
0.04876 0.39341 -1.01896 104 103 85
0.04939 0.39339 -1.01943 92 91 76
0.04997 0.39275 -1.01921 86 86 75
0.05522 0.39340 -1.01434 95 88 74
0.05460 0.39279 -1.01449 90 80 73
0.05579 0.39340 -1.01386 105 97 83
0.05637 0.39278 -1.01364 107 101 89
0.07421 0.39286 -1.02073 122 112 90
0.07356 0.39221 -1.02088 109 102 83
0.07482 0.39220 -1.02049 121 114 97
0.04521 0.39271 -1.02398 148 145 125
0.04458 0.39208 -1.02413 151 143 129
0.04578 0.39275 -1.02216 144 140 120
0.04637 0.39277 -1.02112 139 134 116
0.04694 0.39280 -1.01978 133 128 111
0.04753 0.39280 -1.01921 129 124 105
0.04813 0.39280 -1.01889 120 117 96
0.04879 0.39275 -1.02021 105 102 84
0.04942 0.39272 -1.02067 92 90 76
0.05349 0.39277 -1.01617 87 80 72
0.05291 0.39339 -1.01639 90 81 80
0.05289 0.39277 -1.01635 85 82 73
0.05351 0.39339 -1.01621 92 82 78
0.05411 0.39338 -1.01603 91 82 72
0.05409 0.39276 -1.01599 89 80 71
0.05516 0.39280 -1.01374 94 86 77
0.05455 0.39219 -1.01388 89 81 70
0.05573 0.39280 -1.01324 103 95 84
0.05631 0.39218 -1.01302 107 102 88
0.04524 0.39200 -1.02629 147 142 124
0.04460 0.39136 -1.02644 150 142 131
0.04581 0.39206 -1.02405 142 139 119
0.04640 0.39141 -1.02382 134 131 116
0.04638 0.39210 -1.02245 136 132 115
0.04696 0.39213 -1.02111 132 126 111
0.04755 0.39214 -1.02030 130 125 107
0.04814 0.39214 -1.01977 122 118 100
0.04881 0.39208 -1.02137 107 103 91
0.04944 0.39206 -1.02165 93 90 82
0.05008 0.39203 -1.02200 85 84 78
0.05071 0.39266 -1.02185 84 83 77
0.05069 0.39202 -1.02181 83 80 79
0.05067 0.39139 -1.02177 83 79 75
0.05296 0.39210 -1.01790 81 82 70
0.05237 0.39273 -1.01812 84 82 74
0.05235 0.39211 -1.01808 81 82 72
0.05351 0.39212 -1.01691 81 78 68
0.05406 0.39214 -1.01587 85 78 68
0.05512 0.39220 -1.01332 93 86 74
0.05569 0.39220 -1.01289 102 96 83
0.05627 0.39157 -1.01267 107 101 88
0.11267 0.39506 -0.88319 158 149 135
0.11235 0.39475 -0.88327 161 152 136
0.04525 0.39131 -1.02764 146 139 127
0.04582 0.39138 -1.02520 140 136 120
0.04642 0.39073 -1.02498 135 133 116
0.04949 0.39136 -1.02339 93 88 80
0.05011 0.39135 -1.02319 85 82 75
0.05297 0.39145 -1.01847 75 76 65
0.05352 0.39148 -1.01725 75 72 62
0.05405 0.39151 -1.01597 81 76 65
0.05456 0.39155 -1.01437 86 81 68
0.05506 0.39160 -1.01277 91 86 73
0.05563 0.39160 -1.01224 101 96 83
0.11215 0.39478 -0.88249 157 149 136
0.11184 0.39447 -0.88257 161 153 135
0.04464 0.39062 -1.02924 148 141 131
0.04403 0.39127 -1.02947 152 142 128
0.04401 0.39062 -1.02943 151 142 128
0.04399 0.38997 -1.02939 149 143 127
0.04527 0.39059 -1.02946 143 136 126
0.04588 0.38993 -1.02923 138 133 115
0.04953 0.39067 -1.02469 93 86 76
0.05013 0.39067 -1.02422 84 80 67
0.05073 0.39002 -1.02399 78 74 61
0.05077 0.39065 -1.02444 81 78 66
0.05141 0.39129 -1.02429 81 77 76
0.05139 0.39064 -1.02425 80 77 70
0.05137 0.39000 -1.02421 77 76 64
0.05247 0.39074 -1.02087 75 75 67
0.05299 0.39079 -1.01914 70 68 62
0.05404 0.39088 -1.01612 79 73 63
0.05452 0.39095 -1.01406 84 78 66
0.05503 0.39099 -1.01249 90 83 72
0.05559 0.39100 -1.01190 101 94 82
0.05611 0.39103 -1.01066 107 99 85
0.05671 0.39164 -1.01052 109 102 90
0.05669 0.39103 -1.01048 109 101 86
0.05667 0.39042 -1.01045 110 100 83
0.11183 0.39449 -0.88205 156 149 131
0.11212 0.39417 -0.88194 148 142 122
0.04524 0.38997 -1.02865 141 135 120
0.04584 0.38932 -1.02842 139 133 119
0.04895 0.38997 -1.02655 109 102 88
0.04955 0.38999 -1.02566 93 87 76
0.05018 0.38997 -1.02561 82 77 66
0.05078 0.38932 -1.02539 75 72 59
0.05190 0.39006 -1.02230 76 75 66
0.05127 0.38943 -1.02245 76 75 62
0.05244 0.39011 -1.02069 73 70 64
0.05400 0.39027 -1.01569 76 71 62
0.05448 0.39034 -1.01364 81 76 62
0.05499 0.39039 -1.01219 88 81 66
0.05556 0.39040 -1.01162 101 92 78
0.05613 0.38978 -1.01140 106 98 80
0.05607 0.39043 -1.01040 108 98 83
0.05664 0.38982 -1.01018 108 100 80
0.11142 0.39419 -0.88199 161 152 133
0.11112 0.39450 -0.88210 163 154 135
0.11111 0.39419 -0.88208 163 153 139
0.11110 0.39388 -0.88206 163 152 139
0.11172 0.39418 -0.88190 155 148 126
0.11202 0.39386 -0.88179 149 141 123
0.04827 0.38937 -1.02566 124 118 105
0.04893 0.38932 -1.02638 109 104 95
0.04953 0.38934 -1.02573 91 88 79
0.05014 0.38934 -1.02519 78 76 64
0.05074 0.38869 -1.02496 73 73 57
0.05182 0.38948 -1.02110 74 73 62
0.05236 0.38953 -1.01955 69 65 56
0.05295 0.38889 -1.01933 66 59 48
0.05290 0.38958 -1.01803 68 61 52
0.05348 0.38894 -1.01781 67 59 48
0.05344 0.38962 -1.01685 68 61 53
0.05394 0.38968 -1.01494 74 69 59
0.05443 0.38975 -1.01313 80 75 60
0.05494 0.38980 -1.01164 86 80 63
0.05550 0.38981 -1.01106 99 92 75
0.05607 0.38919 -1.01084 105 100 79
0.11130 0.39388 -0.88183 161 150 132
0.11099 0.39357 -0.88190 162 151 136
0.11162 0.39388 -0.88176 156 146 126
0.11191 0.39356 -0.88165 147 139 125
0.03855 0.39040 -0.99385 158 149 133
0.03910 0.39095 -0.99372 156 151 137
0.03908 0.39039 -0.99369 157 151 134
0.03907 0.38984 -0.99365 156 149 131
0.04770 0.38864 -1.02787 133 126 117
0.04705 0.38800 -1.02802 134 126 121
0.04828 0.38870 -1.02623 125 118 109
0.04891 0.38867 -1.02647 109 104 96
0.04948 0.38873 -1.02479 90 88 77
0.05004 0.38878 -1.02335 76 77 60
0.05431 0.38920 -1.01154 79 72 59
0.05485 0.38923 -1.01057 85 78 64
0.05540 0.38925 -1.00989 96 91 75
0.11145 0.39355 -0.88201 160 148 129
0.11144 0.39324 -0.88200 157 147 128
0.11174 0.39324 -0.88190 152 143 127
0.11174 0.39355 -0.88191 156 144 128
0.11203 0.39323 -0.88180 146 138 124
0.04770 0.38796 -1.02843 132 125 118
0.04705 0.38732 -1.02858 134 127 116
0.04827 0.38804 -1.02656 124 117 108
0.04887 0.38806 -1.02570 109 102 90
0.04942 0.38814 -1.02370 90 87 73
0.04997 0.38821 -1.02204 76 77 63
0.05428 0.38860 -1.01128 78 70 55
0.05482 0.38863 -1.01038 85 76 64
0.05536 0.38866 -1.00948 95 89 76
0.05590 0.38868 -1.00868 104 98 81
0.05650 0.38928 -1.00854 106 102 78
0.05648 0.38868 -1.00850 106 101 82
0.05646 0.38807 -1.00846 104 99 83
0.04770 0.38728 -1.02899 130 124 119
0.04826 0.38738 -1.02679 121 116 110
0.04883 0.38744 -1.02520 106 101 89
0.05199 0.38794 -1.01352 63 56 44
0.05256 0.38732 -1.01330 55 51 41
0.05308 0.38801 -1.01158 61 55 47
0.05362 0.38804 -1.01057 67 60 51
0.05471 0.38810 -1.00891 83 76 62
0.05525 0.38812 -1.00810 93 86 74
0.05574 0.38818 -1.00675 102 96 81
0.09578 0.38938 -0.96111 126 125 102
0.09629 0.38988 -0.96099 124 123 101
0.09628 0.38937 -0.96096 125 123 102
0.04771 0.38657 -1.02996 125 124 114
0.04831 0.38662 -1.02868 118 117 105
0.04886 0.38673 -1.02640 105 102 88
0.05457 0.38759 -1.00706 81 74 60
0.05513 0.38760 -1.00660 89 84 69
0.05564 0.38764 -1.00557 99 93 77
0.05607 0.38774 -1.00344 101 96 77
0.05666 0.38833 -1.00330 102 100 82
0.05663 0.38714 -1.00322 97 92 71
0.04833 0.38589 -1.03002 118 115 98
0.04888 0.38601 -1.02763 107 102 87
0.05443 0.38709 -1.00524 78 71 61
0.05501 0.38708 -1.00511 84 78 65
0.05598 0.38721 -1.00232 98 90 72
0.05652 0.38662 -1.00211 92 85 72
0.06182 0.38847 -0.97654 103 96 83
0.06235 0.38899 -0.97642 107 100 84
0.06228 0.38849 -0.97598 103 97 80
0.06280 0.38901 -0.97585 107 100 82
0.06263 0.38857 -0.97449 102 98 79
0.06314 0.38908 -0.97437 106 100 81
0.06305 0.38860 -0.97367 103 97 79
0.06356 0.38911 -0.97355 107 101 83
0.03847 0.38767 -0.99324 153 146 132
0.03898 0.38711 -0.99304 153 147 134
0.04891 0.38529 -1.02880 107 99 85
0.05490 0.38657 -1.00369 75 70 58
0.05592 0.38666 -1.00171 91 83 72
0.05713 0.38774 -0.98244 95 91 73
0.05663 0.38829 -0.98263 98 96 77
0.05662 0.38775 -0.98260 95 91 74
0.05715 0.38828 -0.98248 100 96 76
0.05767 0.38827 -0.98232 101 98 77
0.05942 0.38789 -0.97873 99 92 77
0.05996 0.38787 -0.97878 98 93 77
0.06048 0.38840 -0.97865 104 98 81
0.06046 0.38787 -0.97859 96 93 77
0.06097 0.38786 -0.97838 95 94 78
0.06188 0.38791 -0.97712 96 90 75
0.06231 0.38795 -0.97632 94 88 70
0.06266 0.38802 -0.97484 94 89 70
0.06306 0.38806 -0.97390 95 91 72
0.03845 0.38712 -0.99318 152 146 133
0.03897 0.38656 -0.99298 152 146 132
0.05532 0.38609 -1.00171 75 71 59
0.05587 0.38549 -1.00150 74 71 63
0.05586 0.38610 -1.00116 81 75 65
0.05641 0.38551 -1.00095 76 74 63
0.05715 0.38718 -0.98279 87 83 67
0.05749 0.38730 -0.98068 87 83 64
0.05837 0.38738 -0.97886 88 82 63
0.05888 0.38738 -0.97863 88 82 66
0.05997 0.38733 -0.97901 88 83 69
0.06099 0.38731 -0.97872 84 85 69
0.06147 0.38733 -0.97826 86 83 66
0.06196 0.38679 -0.97807 80 74 58
0.06190 0.38737 -0.97739 87 81 64
0.06239 0.38683 -0.97720 80 73 61
0.06232 0.38741 -0.97651 85 78 62
0.06281 0.38687 -0.97633 77 73 61
0.06264 0.38750 -0.97479 83 78 63
0.06312 0.38697 -0.97461 80 75 64
0.06303 0.38755 -0.97372 85 81 66
0.06351 0.38703 -0.97353 80 76 62
0.09037 0.38715 -0.96674 130 130 111
0.09075 0.38717 -0.96615 128 129 104
0.09127 0.38768 -0.96603 128 127 98
0.09125 0.38716 -0.96600 130 128 102
0.09781 0.38642 -0.97487 133 134 113
0.09836 0.38697 -0.97474 128 131 109
0.09832 0.38587 -0.97467 137 137 119
0.10085 0.38619 -0.97712 131 134 107
0.10033 0.38676 -0.97732 129 131 109
0.10030 0.38564 -0.97725 137 140 114
0.10087 0.38675 -0.97716 127 131 102
0.10141 0.38675 -0.97699 127 131 103
0.10139 0.38619 -0.97696 130 133 106
0.10161 0.38625 -0.97582 129 133 108
0.10163 0.38681 -0.97585 127 131 104
0.10217 0.38680 -0.97569 123 126 103
0.10175 0.38633 -0.97443 127 130 108
0.10230 0.38688 -0.97430 126 125 106
0.10209 0.38636 -0.97371 128 129 109
0.10264 0.38691 -0.97358 127 126 104
0.10262 0.38636 -0.97354 129 127 108
0.10261 0.38581 -0.97351 132 131 111
0.03790 0.38656 -0.99351 141 136 120
0.05274 0.38585 -0.99740 66 59 52
0.05526 0.38554 -1.00105 72 67 59
0.05580 0.38495 -1.00084 77 74 66
0.05652 0.38631 -0.98823 80 75 58
0.05597 0.38577 -0.98835 79 76 64
0.05650 0.38576 -0.98819 78 74 60
0.05703 0.38576 -0.98803 77 73 59
0.05719 0.38660 -0.98337 79 76 62
0.05769 0.38606 -0.98318 78 73 60
0.05758 0.38669 -0.98182 80 76 62
0.05808 0.38615 -0.98163 80 74 59
0.05947 0.38678 -0.97946 81 74 60
0.05997 0.38624 -0.97927 81 73 63
0.06001 0.38676 -0.97953 80 75 65
0.06050 0.38622 -0.97934 81 75 63
0.06051 0.38676 -0.97924 79 77 67
0.06100 0.38622 -0.97905 80 75 59
0.06147 0.38678 -0.97842 79 75 56
0.06197 0.38625 -0.97823 81 74 59
0.09026 0.38665 -0.96638 134 134 112
0.08975 0.38613 -0.96650 138 137 115
0.09025 0.38613 -0.96635 138 136 114
0.09066 0.38667 -0.96585 133 132 107
0.10084 0.38564 -0.97709 137 139 114
0.10028 0.38508 -0.97722 140 142 113
0.10082 0.38508 -0.97705 141 140 115
0.10136 0.38507 -0.97689 140 139 115
0.10120 0.38567 -0.97637 136 136 111
0.10172 0.38511 -0.97617 141 140 116
0.10160 0.38569 -0.97578 136 136 112
0.10211 0.38513 -0.97558 139 139 112
0.10173 0.38578 -0.97440 133 135 113
0.10225 0.38522 -0.97420 136 136 112
0.10208 0.38581 -0.97367 132 134 112
0.10259 0.38526 -0.97348 135 134 113
0.11169 0.39132 -0.88230 153 144 128
0.11140 0.39164 -0.88241 158 147 125
0.11139 0.39132 -0.88239 156 147 128
0.11138 0.39101 -0.88237 154 146 126
0.11198 0.39100 -0.88219 146 136 119
0.11228 0.39128 -0.88259 148 137 121
0.11257 0.39096 -0.88247 143 135 121
0.11301 0.39129 -0.88206 153 144 129
0.11330 0.39097 -0.88195 153 141 131
0.03789 0.38602 -0.99333 138 129 116
0.10851 0.38548 -0.96723 128 131 109
0.10801 0.38603 -0.96742 129 126 105
0.10799 0.38549 -0.96739 130 129 110
0.10853 0.38602 -0.96726 128 129 105
0.10905 0.38601 -0.96710 129 130 105
0.10903 0.38547 -0.96707 130 132 110
0.11162 0.39101 -0.88219 151 142 124
0.11130 0.39070 -0.88227 153 145 124
0.11191 0.39069 -0.88208 145 136 118
0.10806 0.38493 -0.96758 131 131 114
0.10756 0.38548 -0.96777 131 128 111
0.10754 0.38494 -0.96774 131 129 113
0.10753 0.38440 -0.96770 132 129 114
0.10856 0.38438 -0.96739 136 138 119
0.10850 0.38494 -0.96719 132 135 116
0.10900 0.38440 -0.96700 136 140 116
0.11218 0.38993 -0.87948 155 141 129
0.11248 0.39024 -0.87941 151 141 129
0.11247 0.38993 -0.87939 152 141 127
0.11224 0.38965 -0.87908 156 146 130
0.11223 0.38934 -0.87906 160 149 132
0.11254 0.38996 -0.87901 150 142 128
0.11253 0.38965 -0.87899 151 140 126
0.11225 0.38930 -0.87957 158 145 131
0.12290 0.38594 -0.91074 143 138 114
0.12250 0.38554 -0.91084 135 130 109
0.11238 0.38897 -0.87973 152 140 121
0.11207 0.38867 -0.87980 151 141 124
0.11237 0.38866 -0.87971 150 139 120
0.11233 0.38902 -0.87919 156 145 124
0.11263 0.38902 -0.87910 158 145 128
0.12143 0.38542 -0.91277 143 144 119
0.12334 0.38546 -0.91140 143 138 114
0.12294 0.38506 -0.91150 134 129 111
0.12408 0.38540 -0.91181 153 148 124
0.12446 0.38499 -0.91166 153 149 126
0.11244 0.38869 -0.87932 150 139 120
0.11213 0.38839 -0.87939 149 137 120
0.11243 0.38838 -0.87930 149 136 119
0.11237 0.38875 -0.87876 152 141 123
0.11268 0.38905 -0.87869 155 141 127
0.11267 0.38874 -0.87867 154 141 126
0.11266 0.38843 -0.87865 151 140 125
0.10240 0.38278 -0.94570 135 134 113
