ply
format ascii 1.0
element face 0
property list uchar int vertex_indices
element vertex 1317
property float x
property float y
property float z
property uchar diffuse_red
property uchar diffuse_green
property uchar diffuse_blue
end_header
0.11393 0.46923 -1.08239 217 218 214
0.11130 0.44091 -0.96707 198 199 198
0.11167 0.44053 -0.96697 152 158 158
0.09973 0.46900 -1.08934 169 167 163
0.09908 0.46830 -1.08957 168 165 158
0.10040 0.46901 -1.08913 154 148 149
0.10032 0.46766 -1.08356 115 100 111
0.10097 0.46767 -1.08336 111 87 105
0.10162 0.46767 -1.08315 141 109 126
0.11020 0.46790 -1.08105 206 205 203
0.10956 0.46721 -1.08127 196 196 187
0.11104 0.46815 -1.08182 219 219 212
0.11333 0.46860 -1.08285 224 226 214
0.11268 0.46790 -1.08307 226 228 216
0.11400 0.46862 -1.08272 215 216 210
0.09969 0.46821 -1.08896 171 165 160
0.09904 0.46751 -1.08919 167 167 164
0.10036 0.46822 -1.08875 154 144 145
0.10030 0.46692 -1.08335 112 98 106
0.10095 0.46693 -1.08315 110 88 105
0.10155 0.46685 -1.08260 141 112 124
0.11021 0.46721 -1.08105 205 205 197
0.10957 0.46652 -1.08127 194 194 187
0.11106 0.46748 -1.08189 219 217 208
0.11185 0.46768 -1.08242 226 225 220
0.11252 0.46700 -1.08223 225 227 215
0.11337 0.46794 -1.08301 223 226 210
0.11404 0.46797 -1.08286 213 216 203
0.11301 0.43957 -0.96404 138 153 156
0.11265 0.43993 -0.96415 132 152 149
0.11265 0.43956 -0.96415 130 148 148
0.11266 0.43919 -0.96416 130 149 149
0.11336 0.43994 -0.96392 167 182 181
0.09961 0.46734 -1.08828 170 164 160
0.09896 0.46665 -1.08851 169 165 165
0.10027 0.46735 -1.08808 153 145 147
0.10030 0.46623 -1.08332 112 97 105
0.10095 0.46624 -1.08312 112 86 105
0.10151 0.46609 -1.08229 139 110 121
0.11024 0.46655 -1.08115 205 203 197
0.10960 0.46586 -1.08137 193 192 185
0.11109 0.46683 -1.08202 218 214 208
0.11188 0.46701 -1.08250 225 224 218
0.11255 0.46632 -1.08230 224 226 214
0.11342 0.46731 -1.08323 223 225 210
0.11408 0.46732 -1.08304 212 214 204
0.11071 0.43904 -0.96424 147 152 158
0.11107 0.43868 -0.96414 128 142 148
0.11109 0.43907 -0.96420 130 144 153
0.11143 0.43944 -0.96408 133 152 156
0.11330 0.43939 -0.96480 137 154 159
0.11295 0.43902 -0.96492 128 148 147
0.09951 0.46645 -1.08746 170 164 156
0.09886 0.46575 -1.08768 169 164 160
0.10017 0.46645 -1.08725 152 147 136
0.10034 0.46560 -1.08352 113 101 95
0.10112 0.46582 -1.08420 111 88 94
0.10148 0.46534 -1.08202 142 112 119
0.11033 0.46598 -1.08159 202 201 195
0.10968 0.46529 -1.08181 192 191 187
0.11123 0.46631 -1.08271 215 218 203
0.11198 0.46644 -1.08302 223 225 211
0.11266 0.46576 -1.08283 223 224 212
0.11350 0.46670 -1.08360 221 223 212
0.11414 0.46669 -1.08330 211 213 204
0.11468 0.46654 -1.08246 205 207 198
0.11532 0.46652 -1.08217 203 203 193
0.11587 0.46639 -1.08141 190 191 185
0.11644 0.46629 -1.08079 192 194 186
0.11710 0.46630 -1.08058 198 200 188
0.11711 0.46561 -1.08060 196 201 192
0.09941 0.46556 -1.08666 170 164 158
0.09876 0.46487 -1.08688 166 165 159
0.10008 0.46559 -1.08653 151 146 134
0.10042 0.46504 -1.08402 112 99 92
0.10122 0.46530 -1.08488 111 90 89
0.10173 0.46505 -1.08361 141 110 113
0.10214 0.46466 -1.08177 183 162 162
0.11005 0.46490 -1.08001 203 201 195
0.10941 0.46422 -1.08023 189 188 186
0.11103 0.46535 -1.08160 214 216 202
0.11178 0.46548 -1.08190 223 224 210
0.11245 0.46480 -1.08171 222 224 211
0.11415 0.43923 -0.96706 133 151 146
0.11379 0.43884 -0.96718 124 141 141
0.11452 0.43885 -0.96695 173 182 176
0.09926 0.46458 -1.08544 168 165 160
0.09861 0.46389 -1.08567 169 165 153
0.09996 0.46466 -1.08555 151 144 144
0.10048 0.46444 -1.08441 110 96 101
0.10126 0.46465 -1.08504 112 85 97
0.10154 0.46405 -1.08229 141 109 122
0.10198 0.46371 -1.08066 186 163 171
0.10270 0.46383 -1.08093 191 181 174
0.10336 0.46316 -1.08074 187 187 180
0.10338 0.46389 -1.08094 191 186 178
0.10404 0.46322 -1.08075 189 189 183
0.10883 0.46431 -1.08083 198 199 193
0.10816 0.46498 -1.08102 201 202 196
0.10818 0.46430 -1.08104 201 201 199
0.10819 0.46362 -1.08105 200 198 195
0.11010 0.46428 -1.08027 201 202 196
0.11103 0.46464 -1.08153 212 214 203
0.11182 0.46483 -1.08207 221 223 210
0.11249 0.46415 -1.08188 220 223 207
0.09916 0.46370 -1.08465 168 165 156
0.09852 0.46302 -1.08487 168 167 156
0.09987 0.46381 -1.08486 151 145 143
0.10054 0.46384 -1.08475 108 93 98
0.10126 0.46395 -1.08501 114 83 93
0.10158 0.46341 -1.08248 141 110 124
0.10207 0.46316 -1.08121 181 165 171
0.10885 0.46364 -1.08091 198 195 190
0.10821 0.46295 -1.08113 200 199 189
0.10951 0.46297 -1.08072 188 184 180
0.10948 0.46361 -1.08056 191 187 184
0.11010 0.46358 -1.08021 200 199 194
0.11107 0.46401 -1.08174 210 212 198
0.11185 0.46417 -1.08219 218 221 205
0.11252 0.46349 -1.08200 220 222 211
0.09906 0.46284 -1.08387 165 164 155
0.09842 0.46215 -1.08409 168 167 161
0.09978 0.46295 -1.08411 149 145 139
0.10062 0.46327 -1.08525 110 95 100
0.10130 0.46332 -1.08524 112 85 100
0.10185 0.46316 -1.08431 137 109 120
0.10201 0.46237 -1.08072 180 164 169
0.11117 0.46342 -1.08219 211 211 199
0.11186 0.46348 -1.08217 220 222 213
0.11253 0.46280 -1.08198 219 222 206
0.11595 0.46293 -1.07826 190 194 181
0.11661 0.46226 -1.07807 196 198 186
0.11673 0.46308 -1.07866 196 198 189
0.11737 0.46377 -1.07844 197 198 196
0.11738 0.46309 -1.07845 198 199 194
0.11739 0.46241 -1.07847 197 200 185
0.09900 0.46203 -1.08333 166 164 159
0.09836 0.46135 -1.08355 165 162 156
0.09967 0.46207 -1.08329 151 142 140
0.10065 0.46262 -1.08541 108 91 94
0.10136 0.46271 -1.08558 113 84 99
0.10187 0.46249 -1.08437 136 109 119
0.11107 0.46261 -1.08164 210 212 199
0.11177 0.46266 -1.08163 218 221 207
0.11243 0.46198 -1.08144 217 220 204
0.09886 0.46110 -1.08225 166 163 157
0.09823 0.46042 -1.08247 164 163 152
0.09954 0.46116 -1.08225 149 142 138
0.10061 0.46185 -1.08505 105 91 95
0.10128 0.46188 -1.08496 109 87 95
0.10192 0.46186 -1.08465 134 112 115
0.11141 0.46234 -1.08344 208 211 196
0.11201 0.46226 -1.08287 217 219 205
0.11268 0.46158 -1.08268 217 219 205
0.11327 0.46220 -1.08215 216 217 203
0.11377 0.46202 -1.08116 206 205 196
0.11428 0.46186 -1.08023 199 198 189
0.11493 0.46185 -1.07996 193 195 183
0.11559 0.46118 -1.07977 183 186 171
0.09877 0.46025 -1.08147 164 161 153
0.09813 0.45957 -1.08168 164 163 155
0.09937 0.46018 -1.08093 145 138 134
0.10055 0.46105 -1.08458 106 92 96
0.10125 0.46113 -1.08467 109 84 93
0.10178 0.46094 -1.08361 137 113 120
0.10738 0.46150 -1.08422 193 192 185
0.10803 0.46219 -1.08400 194 196 185
0.10804 0.46151 -1.08401 193 195 184
0.11147 0.46170 -1.08371 206 208 194
0.11202 0.46157 -1.08288 216 218 206
0.11269 0.46089 -1.08269 216 218 206
0.11329 0.46153 -1.08223 214 216 204
0.11381 0.46137 -1.08131 204 206 196
0.11432 0.46121 -1.08036 195 197 188
0.11485 0.46107 -1.07955 190 191 178
0.11551 0.46040 -1.07936 183 183 177
0.09859 0.45926 -1.08006 165 161 155
0.09796 0.45859 -1.08028 165 162 153
0.09924 0.45929 -1.07996 145 139 133
0.10036 0.46005 -1.08314 104 92 95
0.10108 0.46016 -1.08339 108 81 91
0.10166 0.46006 -1.08273 137 106 110
0.10046 0.45730 -1.07011 178 158 152
0.10113 0.45737 -1.07022 183 178 162
0.10174 0.45737 -1.06996 179 178 163
0.11110 0.46135 -1.08545 193 191 186
0.11045 0.46065 -1.08567 181 177 171
0.11146 0.46098 -1.08358 204 205 197
0.11196 0.46080 -1.08253 216 218 208
0.11263 0.46012 -1.08234 215 217 203
0.11324 0.46077 -1.08194 213 216 202
0.11381 0.46067 -1.08125 203 206 191
0.11434 0.46053 -1.08043 195 197 184
0.11485 0.46038 -1.07949 189 190 180
0.11591 0.46013 -1.07794 192 192 187
0.11655 0.46081 -1.07772 195 198 184
0.11656 0.46013 -1.07773 195 197 190
0.11658 0.45946 -1.07775 195 194 187
0.11596 0.43972 -0.98139 193 199 190
0.11418 0.43678 -0.96816 119 136 138
0.11380 0.43716 -0.96826 121 138 138
0.11381 0.43678 -0.96827 118 137 141
0.11382 0.43639 -0.96828 113 136 138
0.11417 0.43717 -0.96815 121 138 142
0.11446 0.43673 -0.96782 134 148 147
0.10014 0.45900 -1.08149 104 93 95
0.10089 0.45917 -1.08203 105 83 95
0.10136 0.45892 -1.08064 134 109 118
0.10007 0.45605 -1.06737 174 161 163
0.10075 0.45616 -1.06766 179 177 171
0.10138 0.45620 -1.06759 177 178 170
0.11098 0.46050 -1.08475 191 192 180
0.11033 0.45980 -1.08498 178 178 165
0.11139 0.46019 -1.08315 202 205 190
0.11188 0.46000 -1.08206 215 217 204
0.11255 0.45932 -1.08186 214 217 202
0.11313 0.45994 -1.08129 211 214 198
0.11368 0.45982 -1.08055 201 204 186
0.11423 0.45971 -1.07982 193 196 179
0.11470 0.45952 -1.07873 187 190 172
0.11530 0.45948 -1.07830 181 183 171
0.11583 0.45935 -1.07749 191 191 186
0.11649 0.45868 -1.07730 195 194 187
0.11604 0.43961 -0.98290 195 196 192
0.11563 0.44004 -0.98302 194 202 188
0.11564 0.43961 -0.98303 195 201 192
0.11564 0.43919 -0.98304 196 200 191
0.11365 0.43606 -0.96673 116 135 137
0.11329 0.43568 -0.96685 112 135 134
0.11386 0.43597 -0.96622 137 150 151
0.09995 0.45802 -1.08007 103 91 92
0.10071 0.45821 -1.08071 105 82 94
0.10124 0.45804 -1.07971 133 113 120
0.09981 0.45502 -1.06559 171 161 164
0.10045 0.45508 -1.06563 176 176 175
0.10106 0.45509 -1.06545 175 176 171
0.11515 0.45862 -1.07749 178 179 168
0.11572 0.45854 -1.07693 188 189 183
0.11638 0.45787 -1.07674 192 194 181
0.09884 0.45661 -1.07687 141 136 132
0.09982 0.45715 -1.07914 103 90 89
0.10053 0.45725 -1.07940 106 84 89
0.10102 0.45703 -1.07813 135 111 111
0.09964 0.45414 -1.06442 173 160 155
0.10023 0.45412 -1.06413 177 177 169
0.11513 0.45791 -1.07738 174 176 164
0.11574 0.45788 -1.07698 188 190 177
0.11640 0.45721 -1.07679 192 195 179
0.11916 0.42199 -0.89935 220 209 184
0.11936 0.42179 -0.89929 224 216 199
0.09880 0.45587 -1.07650 139 133 131
0.09955 0.45605 -1.07712 104 91 90
0.10019 0.45607 -1.07697 106 82 86
0.10089 0.45617 -1.07721 138 110 110
0.09957 0.45339 -1.06385 175 158 157
0.10013 0.45335 -1.06345 176 174 168
0.10074 0.45273 -1.06327 175 176 163
0.09964 0.45551 -1.07772 101 87 92
0.10032 0.45557 -1.07778 105 81 89
0.10099 0.45563 -1.07783 137 108 112
0.09959 0.45279 -1.06398 174 158 154
0.10014 0.45271 -1.06342 175 173 164
0.10075 0.45209 -1.06325 176 176 166
0.11063 0.45653 -1.07890 196 197 188
0.11812 0.42144 -0.89902 190 180 163
0.11793 0.42164 -0.89908 191 184 163
0.11793 0.42144 -0.89908 192 181 165
0.11793 0.42124 -0.89909 192 182 162
0.11812 0.42165 -0.89902 190 182 165
0.11833 0.42145 -0.89897 178 170 151
0.11852 0.42145 -0.89891 203 195 176
0.11852 0.42125 -0.89891 208 199 177
0.10109 0.45509 -1.07845 135 110 117
0.09985 0.45250 -1.06567 173 158 157
0.11764 0.42110 -0.89847 190 179 155
0.11745 0.42090 -0.89853 190 183 164
0.11766 0.42105 -0.89821 178 169 142
0.11786 0.42085 -0.89816 208 202 178
0.10139 0.45482 -1.08045 136 111 115
0.10012 0.45222 -1.06741 173 159 155
0.11019 0.45538 -1.08014 182 180 163
0.10955 0.45470 -1.08036 168 168 151
0.11071 0.45525 -1.07925 196 195 182
0.11119 0.45506 -1.07811 208 208 195
0.11250 0.45510 -1.07783 204 206 193
0.12091 0.42831 -0.93573 139 140 130
0.12062 0.42800 -0.93583 133 132 124
0.12120 0.42801 -0.93565 143 145 129
0.12120 0.42831 -0.93564 144 144 137
0.12149 0.42801 -0.93556 145 147 133
0.11773 0.42092 -0.89857 188 182 156
0.11754 0.42072 -0.89864 190 182 168
0.11774 0.42072 -0.89858 185 177 159
0.11793 0.42072 -0.89852 178 171 148
0.11789 0.42091 -0.89847 178 173 143
0.11808 0.42071 -0.89841 209 202 176
0.10174 0.45461 -1.08276 136 109 119
0.10927 0.45511 -1.08263 180 180 165
0.10860 0.45579 -1.08282 190 186 175
0.10861 0.45510 -1.08283 187 185 174
0.10993 0.45443 -1.08244 169 163 152
0.11034 0.45486 -1.08093 179 180 164
0.11080 0.45466 -1.07969 193 196 180
0.11119 0.45438 -1.07808 205 208 192
0.11179 0.45434 -1.07766 205 208 190
0.11241 0.45431 -1.07730 202 205 189
0.11515 0.43607 -0.98027 189 191 179
0.11475 0.43648 -0.98039 191 193 181
0.11475 0.43606 -0.98040 191 193 183
0.11578 0.43621 -0.98079 182 184 175
0.10077 0.45437 -1.08548 103 83 82
0.10143 0.45438 -1.08527 109 76 86
0.10238 0.45478 -1.08708 138 110 115
0.10853 0.45432 -1.08234 186 186 175
0.10787 0.45499 -1.08253 186 184 179
0.10788 0.45431 -1.08254 185 185 184
0.10789 0.45363 -1.08256 185 184 177
0.10938 0.45454 -1.08322 179 178 160
0.11005 0.45386 -1.08303 168 162 150
0.11049 0.45433 -1.08170 178 177 163
0.11095 0.45412 -1.08041 191 194 174
0.11131 0.45382 -1.07866 201 204 188
0.11181 0.45367 -1.07771 197 200 184
0.11236 0.45357 -1.07699 197 200 185
0.11301 0.45291 -1.07680 191 193 181
0.11743 0.42049 -0.89851 189 178 164
0.11723 0.42068 -0.89856 191 182 166
0.11724 0.42048 -0.89857 191 180 165
0.11724 0.42028 -0.89857 190 178 163
0.11762 0.42049 -0.89845 183 169 154
0.11778 0.42048 -0.89835 178 167 144
0.11798 0.42028 -0.89830 215 207 184
0.11785 0.42045 -0.89816 212 203 179
0.11804 0.42065 -0.89809 221 214 192
0.10088 0.45382 -1.08616 101 87 80
0.10168 0.45402 -1.08696 105 77 85
0.10228 0.45395 -1.08635 135 111 111
0.11036 0.45350 -1.08095 182 175 164
0.11100 0.45349 -1.08067 190 192 174
0.11158 0.45342 -1.08009 196 197 180
0.11184 0.45302 -1.07783 182 183 168
0.11235 0.45289 -1.07691 186 188 176
0.11421 0.43466 -0.97754 186 188 173
0.11383 0.43425 -0.97767 185 188 176
0.11422 0.43425 -0.97755 186 189 173
0.11474 0.43475 -0.97781 178 181 165
0.11737 0.42027 -0.89844 190 178 162
0.11718 0.42007 -0.89851 189 177 161
0.11756 0.42027 -0.89838 180 169 152
0.11776 0.42007 -0.89833 184 177 160
0.11771 0.42026 -0.89828 180 170 150
0.11791 0.42006 -0.89822 215 209 187
0.10092 0.45318 -1.08641 100 87 82
0.10178 0.45345 -1.08757 105 80 85
0.10222 0.45317 -1.08588 133 110 112
0.11013 0.45255 -1.07960 179 175 161
0.11076 0.45254 -1.07933 190 191 168
0.11138 0.45251 -1.07893 191 193 174
0.11130 0.45178 -1.07494 162 164 152
0.11204 0.45190 -1.07529 166 168 159
0.11265 0.45187 -1.07493 187 189 179
0.11317 0.45176 -1.07414 185 187 176
0.11475 0.43434 -0.97782 176 181 165
0.11747 0.42010 -0.89856 190 178 163
0.11728 0.41989 -0.89863 188 177 157
0.11748 0.41989 -0.89857 189 177 162
0.11767 0.41990 -0.89851 169 161 145
0.11767 0.42010 -0.89850 176 166 152
0.10100 0.45258 -1.08688 99 85 76
0.10166 0.45258 -1.08667 105 78 77
0.10241 0.45271 -1.08708 133 109 108
0.10989 0.45162 -1.07829 176 178 167
0.11053 0.45162 -1.07803 189 191 172
0.11121 0.45166 -1.07801 188 191 173
0.11102 0.45083 -1.07347 144 146 138
0.11144 0.45062 -1.07214 149 151 147
0.11255 0.45110 -1.07439 179 183 172
0.11307 0.45099 -1.07359 183 186 170
0.11422 0.43384 -0.97754 185 188 172
0.11383 0.43384 -0.97766 187 189 177
0.11383 0.43343 -0.97767 185 189 174
0.11468 0.43389 -0.97763 175 178 161
0.10086 0.45170 -1.08588 103 86 81
0.10152 0.45170 -1.08567 109 79 79
0.10216 0.45169 -1.08534 135 108 108
0.11058 0.44972 -1.07109 141 143 132
0.11111 0.44963 -1.07041 143 145 135
0.11231 0.45019 -1.07314 168 172 156
0.11318 0.45042 -1.07412 170 173 158
0.11649 0.42355 -0.92075 176 170 156
0.11674 0.42381 -0.92067 176 171 158
0.10063 0.45070 -1.08416 101 83 76
0.10128 0.45070 -1.08396 108 78 77
0.10156 0.45024 -1.08119 136 108 107
0.11046 0.44894 -1.07045 151 151 138
0.11081 0.44868 -1.06883 139 140 136
0.11696 0.42337 -0.92103 178 175 159
0.11697 0.42311 -0.92103 178 171 158
0.11721 0.42363 -0.92094 180 176 165
0.11721 0.42337 -0.92095 180 178 164
0.10162 0.44962 -1.08151 136 110 109
0.11071 0.44793 -1.06829 146 148 142
0.11646 0.42301 -0.92069 176 168 158
0.11671 0.42276 -0.92062 178 172 159
0.09969 0.44812 -1.07734 99 81 83
0.10032 0.44812 -1.07714 103 75 82
0.10140 0.44867 -1.07998 135 108 111
0.10027 0.44657 -1.06791 166 151 144
0.10084 0.44652 -1.06742 167 163 153
0.10146 0.44589 -1.06724 167 167 158
0.10145 0.44652 -1.06722 167 168 155
0.10207 0.44589 -1.06705 170 167 159
0.11559 0.43295 -0.98146 181 183 169
0.11520 0.43252 -0.98159 182 185 171
0.11620 0.43306 -0.98191 161 166 157
0.11805 0.41914 -0.89867 205 198 176
0.11786 0.41934 -0.89872 163 157 134
0.11786 0.41914 -0.89873 163 154 136
0.11786 0.41894 -0.89873 166 154 137
0.11805 0.41934 -0.89866 202 197 175
0.11824 0.41934 -0.89860 217 211 191
0.11825 0.41914 -0.89862 219 211 189
0.11844 0.41935 -0.89855 220 210 194
0.11845 0.41915 -0.89855 217 211 193
0.11845 0.41895 -0.89856 218 211 194
0.09939 0.44707 -1.07515 97 81 81
0.10002 0.44708 -1.07496 102 74 82
0.10105 0.44757 -1.07751 135 107 111
0.10028 0.44592 -1.06787 165 151 145
0.10083 0.44586 -1.06732 168 162 155
0.10145 0.44523 -1.06714 168 168 159
0.11084 0.44618 -1.06551 146 149 131
0.11571 0.43258 -0.98177 179 183 169
0.11531 0.43216 -0.98191 179 186 170
0.11626 0.43267 -0.98207 157 166 155
0.11816 0.41897 -0.89879 209 199 176
0.11797 0.41876 -0.89886 164 152 130
0.11836 0.41877 -0.89874 220 210 188
0.11835 0.41897 -0.89873 219 212 188
0.11855 0.41877 -0.89867 217 209 191
0.09925 0.44624 -1.07413 98 83 85
0.09988 0.44624 -1.07393 103 75 84
0.10072 0.44650 -1.07517 132 108 114
0.10034 0.44535 -1.06827 164 152 146
0.10090 0.44529 -1.06770 165 165 153
0.10152 0.44466 -1.06753 165 167 153
0.11560 0.43210 -0.98144 175 183 168
0.11520 0.43168 -0.98157 178 184 172
0.11619 0.43221 -0.98187 154 164 155
0.11533 0.42210 -0.92029 180 179 164
0.11508 0.42236 -0.92036 160 155 142
0.11508 0.42210 -0.92037 158 156 137
0.11509 0.42184 -0.92037 157 158 141
0.11558 0.42210 -0.92021 194 189 179
0.11610 0.42220 -0.92059 181 174 164
0.11635 0.42220 -0.92051 176 170 161
0.11635 0.42194 -0.92052 174 168 158
0.09922 0.44554 -1.07387 96 82 85
0.09985 0.44555 -1.07367 102 76 86
0.10063 0.44573 -1.07451 132 108 116
0.10039 0.44476 -1.06855 164 151 145
0.10096 0.44471 -1.06803 165 166 150
0.10158 0.44407 -1.06786 166 168 149
0.12458 0.42666 -0.94683 162 164 149
0.12426 0.42632 -0.94694 161 164 149
0.11551 0.42190 -0.92059 182 181 167
0.11592 0.42196 -0.92077 193 188 178
0.11616 0.42196 -0.92069 178 171 160
0.11642 0.42170 -0.92062 174 168 157
0.09937 0.44504 -1.07480 95 81 85
0.09999 0.44505 -1.07460 99 75 87
0.10056 0.44498 -1.07396 131 110 117
0.10046 0.44418 -1.06893 162 152 142
0.10102 0.44413 -1.06842 165 165 144
0.10165 0.44350 -1.06824 165 165 149
0.10817 0.44401 -1.06498 178 179 163
0.10842 0.44370 -1.06292 190 192 174
0.10904 0.44308 -1.06275 189 192 172
0.12441 0.42626 -0.94652 162 164 149
0.12409 0.42593 -0.94662 161 164 153
0.09880 0.44444 -1.07536 126 119 115
0.09937 0.44438 -1.07475 95 78 83
0.10000 0.44438 -1.07455 99 76 82
0.10054 0.44429 -1.07379 130 110 113
0.10051 0.44359 -1.06924 159 151 138
0.10103 0.44348 -1.06839 162 163 144
0.10165 0.44285 -1.06821 164 165 149
0.10774 0.44299 -1.06265 178 179 167
0.10794 0.44264 -1.06035 189 191 175
0.10855 0.44202 -1.06018 188 190 171
0.11175 0.44238 -1.05726 177 179 170
0.11236 0.44177 -1.05709 178 181 166
0.09901 0.44401 -1.07681 129 118 115
0.09939 0.44373 -1.07484 96 75 78
0.10002 0.44374 -1.07464 99 69 79
0.10022 0.44329 -1.07159 132 109 114
0.10035 0.44276 -1.06810 159 150 137
0.10084 0.44263 -1.06708 163 162 141
0.10735 0.44200 -1.06051 178 182 161
0.10761 0.44172 -1.05852 188 192 170
0.10821 0.44110 -1.05835 187 189 171
0.11160 0.44163 -1.05647 174 178 164
0.11220 0.44102 -1.05629 177 180 163
0.11544 0.43014 -0.97968 143 150 139
0.08094 0.43709 -1.04187 150 143 133
0.08143 0.43701 -1.04115 159 153 148
0.08196 0.43647 -1.04100 161 156 142
0.09929 0.44367 -1.07882 127 119 112
0.09935 0.44302 -1.07448 94 77 74
0.09997 0.44302 -1.07428 99 69 75
0.09987 0.44225 -1.06914 132 110 109
0.10011 0.44186 -1.06645 159 149 139
0.10063 0.44177 -1.06564 162 159 146
0.10124 0.44114 -1.06546 162 160 153
0.10707 0.44113 -1.05897 177 181 154
0.10737 0.44089 -1.05721 187 190 166
0.10797 0.44028 -1.05704 186 188 171
0.11531 0.42966 -0.97932 140 146 136
0.08095 0.43653 -1.04183 149 142 130
0.08147 0.43652 -1.04158 158 152 142
0.08200 0.43598 -1.04143 159 156 137
0.09810 0.44235 -1.07484 145 148 132
0.09748 0.44169 -1.07505 148 149 136
0.09917 0.44285 -1.07784 122 117 107
0.09942 0.44243 -1.07490 94 77 74
0.10004 0.44243 -1.07470 101 70 80
0.09949 0.44119 -1.06647 132 108 113
0.09994 0.44104 -1.06525 158 148 141
0.10044 0.44094 -1.06436 160 158 147
0.10710 0.44004 -1.05578 185 188 167
0.10770 0.43944 -1.05561 183 185 167
0.11125 0.44012 -1.05472 172 175 159
0.11184 0.43951 -1.05455 176 178 162
0.11474 0.42934 -0.98019 171 177 161
0.11433 0.42975 -0.98030 175 180 163
0.11434 0.42934 -0.98031 173 179 162
0.11435 0.42892 -0.98032 172 176 161
0.11509 0.42932 -0.97994 167 173 157
0.11585 0.42949 -0.98082 136 142 132
0.08148 0.43598 -1.04161 157 152 134
0.08202 0.43543 -1.04146 159 154 135
0.09809 0.44167 -1.07469 145 147 133
0.09747 0.44101 -1.07490 147 147 134
0.09904 0.44203 -1.07686 120 115 106
0.09928 0.44162 -1.07387 92 74 74
0.09990 0.44162 -1.07368 101 71 76
0.09984 0.44029 -1.06452 157 148 141
0.10042 0.44028 -1.06419 158 156 145
0.10103 0.43966 -1.06402 159 157 144
0.10679 0.43917 -1.05411 183 186 164
0.10738 0.43857 -1.05394 181 184 163
0.10769 0.43897 -1.05238 181 184 167
0.10770 0.43837 -1.05239 178 181 161
0.10828 0.43837 -1.05221 175 179 160
0.10812 0.43886 -1.05148 175 179 161
0.10874 0.43890 -1.05152 170 173 157
0.11490 0.42900 -0.98065 169 175 160
0.11451 0.42858 -0.98078 170 174 156
0.11491 0.42858 -0.98066 170 173 158
0.11524 0.42897 -0.98034 167 171 154
0.09887 0.44118 -1.07557 118 112 100
0.09962 0.43943 -1.06295 158 149 137
0.10028 0.43950 -1.06318 158 156 142
0.10089 0.43888 -1.06301 158 157 142
0.10851 0.43812 -1.05035 170 174 158
0.10795 0.43752 -1.05054 172 179 160
0.11526 0.42856 -0.98038 166 169 151
0.09954 0.43873 -1.06242 157 145 126
0.10015 0.43811 -1.06225 159 153 140
0.10024 0.43883 -1.06291 161 155 138
0.10085 0.43821 -1.06273 158 155 137
0.11658 0.42007 -0.92184 178 173 163
0.11683 0.41981 -0.92177 166 164 156
0.09803 0.43898 -1.06939 119 112 97
0.09946 0.43801 -1.06180 156 145 133
0.10006 0.43740 -1.06163 157 154 138
0.11736 0.42195 -0.93730 155 156 147
0.11766 0.42165 -0.93721 161 162 155
0.09805 0.43835 -1.06947 121 111 99
0.09938 0.43731 -1.06118 157 143 138
0.09998 0.43669 -1.06101 155 155 140
0.09709 0.43734 -1.06704 142 140 130
0.09650 0.43670 -1.06725 144 143 132
0.09870 0.43660 -1.06076 129 106 113
0.09939 0.43669 -1.06124 153 142 138
0.11615 0.41929 -0.92212 176 177 162
0.11676 0.41939 -0.92263 189 188 176
0.09707 0.43667 -1.06682 144 139 130
0.09648 0.43604 -1.06702 145 142 133
0.09915 0.43752 -1.07259 88 67 66
0.09977 0.43753 -1.07240 95 67 72
0.09919 0.43642 -1.06405 128 107 111
0.09953 0.43619 -1.06208 152 144 133
0.10012 0.43619 -1.06190 155 155 137
0.10071 0.43682 -1.06169 155 155 139
0.10072 0.43620 -1.06171 154 155 140
0.10073 0.43558 -1.06172 156 154 134
0.11398 0.41858 -0.91948 149 150 139
0.09711 0.43608 -1.06708 142 138 127
0.09927 0.43697 -1.07335 87 66 61
0.09989 0.43698 -1.07316 94 67 70
0.09960 0.43616 -1.06676 128 107 106
0.09969 0.43570 -1.06310 151 142 127
0.10034 0.43576 -1.06330 156 153 132
0.10095 0.43514 -1.06312 154 153 135
0.11388 0.41830 -0.91931 149 148 137
0.11364 0.41805 -0.91939 145 147 134
0.11388 0.41805 -0.91932 149 150 133
0.09645 0.43538 -1.06680 142 142 130
0.09584 0.43600 -1.06697 143 142 128
0.09585 0.43537 -1.06699 141 142 129
0.09586 0.43474 -1.06700 142 139 126
0.09647 0.43475 -1.06681 142 140 124
0.09717 0.43548 -1.06740 140 138 124
0.09938 0.43642 -1.07410 86 67 67
0.10001 0.43642 -1.07390 94 67 75
0.10005 0.43591 -1.06973 128 107 107
0.09995 0.43530 -1.06477 150 141 126
0.10062 0.43536 -1.06506 154 153 133
0.10124 0.43474 -1.06488 152 154 136
0.10878 0.42079 -0.94357 174 178 154
0.10847 0.42110 -0.94366 177 180 159
0.10848 0.42079 -0.94366 175 179 156
0.10848 0.42048 -0.94367 175 178 158
0.10877 0.42110 -0.94356 175 179 156
0.10908 0.42048 -0.94348 167 169 152
0.10898 0.42076 -0.94325 169 173 149
0.10928 0.42108 -0.94315 170 173 150
0.10928 0.42076 -0.94315 168 170 148
0.10929 0.42045 -0.94316 167 169 153
0.11776 0.41572 -0.89891 196 185 166
0.11795 0.41552 -0.89885 210 199 178
0.11781 0.41570 -0.89869 210 199 179
0.11801 0.41550 -0.89864 208 198 179
0.09726 0.43493 -1.06803 141 136 120
0.09666 0.43429 -1.06823 143 138 124
0.09969 0.43604 -1.07625 87 68 70
0.10033 0.43604 -1.07605 92 69 77
0.10035 0.43552 -1.07174 126 107 107
0.09727 0.43430 -1.06806 140 134 119
0.09668 0.43366 -1.06827 144 136 121
0.09939 0.43566 -1.07876 116 105 92
0.09967 0.43535 -1.07602 85 67 64
0.10030 0.43535 -1.07582 91 67 73
0.10061 0.43509 -1.07343 126 106 107
0.11245 0.43406 -1.06006 165 169 153
0.11306 0.43344 -1.05989 166 168 154
0.11791 0.41535 -0.89909 201 191 165
0.11810 0.41535 -0.89902 209 198 175
0.09894 0.43459 -1.07545 114 105 90
0.10043 0.43428 -1.07215 125 107 105
0.10051 0.43385 -1.06837 149 141 130
0.10113 0.43386 -1.06823 149 148 136
0.10174 0.43387 -1.06804 150 151 137
0.10175 0.43323 -1.06806 147 148 135
0.09705 0.43281 -1.06626 137 134 115
0.09645 0.43218 -1.06647 137 135 119
0.09849 0.43354 -1.07216 111 104 89
0.10014 0.43338 -1.07010 126 107 101
0.10065 0.43331 -1.06920 149 139 125
0.10125 0.43331 -1.06895 148 146 134
0.10187 0.43267 -1.06877 146 146 136
0.10365 0.43163 -1.05311 151 153 145
0.10306 0.43222 -1.05327 153 153 141
0.10307 0.43163 -1.05329 151 152 145
0.10308 0.43103 -1.05330 148 148 143
0.11274 0.43297 -1.06140 165 167 154
0.11336 0.43235 -1.06122 164 168 152
0.08088 0.42851 -1.03932 140 135 116
0.08036 0.42796 -1.03949 132 129 112
0.08150 0.42867 -1.04051 148 142 126
0.08204 0.42813 -1.04036 150 144 127
0.09804 0.43251 -1.06882 110 102 91
0.09985 0.43251 -1.06809 125 107 102
0.10066 0.43267 -1.06926 146 138 124
0.10127 0.43267 -1.06903 147 147 133
0.10189 0.43204 -1.06885 147 147 135
0.08085 0.42791 -1.03881 139 135 119
0.08034 0.42737 -1.03899 133 128 113
0.08148 0.42808 -1.04010 148 141 125
0.08201 0.42754 -1.03995 150 143 127
0.09775 0.43163 -1.06669 111 100 94
0.10052 0.43191 -1.06823 145 138 129
0.10113 0.43192 -1.06807 145 145 133
0.10175 0.43129 -1.06789 147 147 133
0.10740 0.43098 -1.05675 165 169 147
0.10800 0.43037 -1.05658 164 167 146
0.10846 0.43093 -1.05582 163 165 145
0.08086 0.42737 -1.03883 139 133 119
0.08035 0.42682 -1.03900 134 128 112
0.08149 0.42754 -1.04019 147 140 126
0.08203 0.42700 -1.04004 149 143 130
0.09748 0.43078 -1.06469 110 99 94
0.10067 0.43139 -1.06923 145 137 126
0.10130 0.43075 -1.06905 147 144 127
0.10129 0.43139 -1.06903 146 144 132
0.10191 0.43076 -1.06886 144 145 129
0.10756 0.43046 -1.05754 163 166 145
0.10858 0.43037 -1.05636 159 161 141
0.11368 0.43125 -1.06270 155 163 146
0.13470 0.43515 -1.09150 158 163 146
0.13399 0.43587 -1.09170 161 167 149
0.13400 0.43515 -1.09172 159 163 143
0.13401 0.43442 -1.09174 150 152 138
0.13469 0.43588 -1.09149 162 166 151
0.13538 0.43589 -1.09127 161 167 151
0.13536 0.43514 -1.09114 158 164 147
0.13604 0.43588 -1.09090 162 167 150
0.13603 0.43514 -1.09084 159 164 146
0.13672 0.43587 -1.09060 162 166 148
0.08083 0.42677 -1.03831 137 133 117
0.08032 0.42623 -1.03849 133 128 113
0.08147 0.42696 -1.03984 145 140 126
0.08201 0.42642 -1.03969 146 143 132
0.09733 0.43002 -1.06350 107 99 90
0.09794 0.43004 -1.06343 83 60 58
0.09853 0.43005 -1.06324 90 58 58
0.10066 0.43073 -1.06910 146 137 124
0.10129 0.43010 -1.06892 145 144 127
0.13551 0.43448 -1.09169 149 152 135
0.13610 0.43444 -1.09106 150 153 135
0.08081 0.42620 -1.03800 136 133 115
0.08030 0.42565 -1.03818 133 128 111
0.08134 0.42566 -1.03785 142 142 126
0.08146 0.42637 -1.03948 143 141 125
0.08199 0.42583 -1.03933 145 143 132
0.09727 0.42935 -1.06307 105 99 85
0.09783 0.42933 -1.06262 80 61 58
0.09843 0.42934 -1.06243 86 57 63
0.10068 0.43009 -1.06913 145 137 123
0.10130 0.42946 -1.06895 144 144 127
0.09730 0.42875 -1.06321 104 97 82
0.09787 0.42873 -1.06285 80 60 56
0.09847 0.42874 -1.06267 86 60 64
0.10073 0.42948 -1.06942 144 136 123
0.10135 0.42885 -1.06925 142 143 125
0.13725 0.42933 -1.05284 128 129 110
0.13786 0.42871 -1.05267 122 124 107
0.10083 0.42890 -1.07006 142 137 122
0.10146 0.42827 -1.06988 141 141 127
0.10088 0.42829 -1.07032 139 135 123
0.10883 0.42802 -1.06403 145 148 131
0.10937 0.42799 -1.06353 131 133 119
0.11004 0.42803 -1.06367 138 140 126
0.09804 0.42736 -1.06832 103 96 78
0.10145 0.42762 -1.06977 141 138 127
0.10206 0.42826 -1.06957 144 139 128
0.10207 0.42762 -1.06958 141 139 131
0.10901 0.42747 -1.06494 139 141 123
0.10963 0.42748 -1.06480 111 112 103
0.11019 0.42746 -1.06437 125 126 118
0.11084 0.42749 -1.06438 141 143 130
0.09677 0.42627 -1.06360 126 127 109
0.09618 0.42564 -1.06380 130 130 114
0.09833 0.42690 -1.07032 102 95 79
0.09926 0.42712 -1.07240 78 58 51
0.09988 0.42712 -1.07221 88 61 59
0.10096 0.42704 -1.07072 139 132 120
0.10159 0.42640 -1.07054 139 135 122
0.10152 0.42701 -1.07013 139 136 126
0.10214 0.42637 -1.06996 138 136 121
0.10213 0.42701 -1.06994 139 138 129
0.10274 0.42766 -1.06973 142 142 129
0.10275 0.42702 -1.06975 140 142 128
0.10698 0.42701 -1.06792 136 135 123
0.10637 0.42637 -1.06813 139 137 129
0.10810 0.42697 -1.06696 140 143 127
0.10872 0.42634 -1.06678 145 148 126
0.10917 0.42691 -1.06572 135 137 117
0.10996 0.42700 -1.06647 100 102 89
0.11053 0.42699 -1.06609 116 117 111
0.11122 0.42702 -1.06624 140 141 131
0.09684 0.42569 -1.06405 127 125 110
0.09625 0.42506 -1.06426 129 129 112
0.09845 0.42634 -1.07118 101 92 83
0.09940 0.42655 -1.07329 78 57 58
0.09997 0.42652 -1.07272 87 60 62
0.10018 0.42628 -1.06976 120 100 94
0.10093 0.42637 -1.07046 138 129 116
0.10156 0.42573 -1.07028 137 136 120
0.10683 0.42630 -1.06707 136 134 125
0.10623 0.42565 -1.06728 137 138 123
0.10744 0.42630 -1.06685 129 131 120
0.10802 0.42629 -1.06647 139 141 128
0.10864 0.42566 -1.06630 145 147 127
0.10934 0.42634 -1.06659 133 136 114
0.11008 0.42641 -1.06704 100 102 88
0.11078 0.42645 -1.06728 115 116 108
0.11141 0.42647 -1.06718 137 139 127
0.11227 0.42658 -1.06820 130 132 117
0.11330 0.42677 -1.07000 114 116 102
0.09712 0.42524 -1.06608 127 123 109
0.09653 0.42460 -1.06628 129 129 112
0.09820 0.42553 -1.06926 99 90 83
0.10021 0.42566 -1.06993 121 100 96
0.10084 0.42567 -1.06984 136 128 115
0.10147 0.42503 -1.06966 137 135 122
0.10704 0.42575 -1.06818 133 134 119
0.10644 0.42510 -1.06839 137 138 121
0.10765 0.42575 -1.06795 128 129 114
0.10824 0.42575 -1.06761 138 140 125
0.10886 0.42511 -1.06743 144 146 126
0.10960 0.42582 -1.06792 138 138 121
0.11042 0.42592 -1.06877 110 108 98
0.11106 0.42594 -1.06872 119 121 110
0.11179 0.42599 -1.06903 132 136 119
0.11273 0.42613 -1.07042 119 122 106
0.11336 0.42548 -1.07023 104 105 92
0.11377 0.42632 -1.07229 108 109 97
0.11448 0.42635 -1.07242 115 117 104
0.11510 0.42702 -1.07221 124 125 105
0.11511 0.42636 -1.07223 123 124 108
0.09737 0.42475 -1.06778 125 122 105
0.10026 0.42504 -1.07022 121 101 98
0.10081 0.42501 -1.06957 137 128 120
0.10144 0.42437 -1.06939 137 133 122
0.10721 0.42519 -1.06911 131 132 113
0.10661 0.42454 -1.06932 138 139 119
0.10784 0.42455 -1.06893 126 128 108
0.10783 0.42519 -1.06890 128 127 109
0.10841 0.42518 -1.06853 138 139 124
0.10982 0.42527 -1.06904 144 142 125
0.11057 0.42533 -1.06952 126 123 106
0.11134 0.42540 -1.07009 125 128 110
0.11221 0.42551 -1.07112 124 130 112
0.11325 0.42569 -1.07297 108 112 98
0.11500 0.42590 -1.07493 114 114 102
0.11578 0.42597 -1.07539 123 123 111
0.11641 0.42664 -1.07517 123 125 104
0.11642 0.42597 -1.07519 122 123 108
0.11643 0.42530 -1.07520 122 124 108
0.09687 0.42417 -1.06875 129 127 112
0.09625 0.42480 -1.06893 130 128 113
0.09626 0.42417 -1.06894 129 127 113
0.09627 0.42353 -1.06896 127 128 115
0.09753 0.42421 -1.06891 125 119 104
0.10030 0.42441 -1.07037 119 101 98
0.10080 0.42435 -1.06944 137 128 122
0.10143 0.42372 -1.06927 133 134 117
0.10742 0.42463 -1.07020 132 133 111
0.10805 0.42399 -1.07002 125 128 108
0.10862 0.42462 -1.06960 140 139 123
0.10928 0.42465 -1.06963 145 144 127
0.11004 0.42471 -1.07015 146 147 128
0.11074 0.42475 -1.07036 139 140 119
0.11151 0.42482 -1.07090 131 133 113
0.11262 0.42502 -1.07315 115 121 102
0.11357 0.42516 -1.07455 100 104 92
0.11453 0.42530 -1.07592 101 102 95
0.11528 0.42534 -1.07623 111 110 101
0.11609 0.42542 -1.07683 122 122 107
0.11675 0.42475 -1.07664 122 125 102
0.09705 0.42363 -1.07001 126 126 111
0.09645 0.42299 -1.07021 125 126 114
0.09768 0.42365 -1.06993 125 119 101
0.10040 0.42381 -1.07101 119 100 95
0.10083 0.42373 -1.06961 135 130 116
0.10146 0.42309 -1.06943 133 135 115
0.10679 0.42397 -1.07030 138 139 117
0.10616 0.42461 -1.07048 136 138 122
0.10617 0.42396 -1.07049 137 138 116
0.10618 0.42332 -1.07051 134 135 112
0.10761 0.42406 -1.07122 130 132 111
0.10824 0.42342 -1.07104 124 126 110
0.10886 0.42408 -1.07086 138 138 119
0.10953 0.42410 -1.07091 143 143 125
0.11016 0.42346 -1.07073 148 151 132
0.11030 0.42417 -1.07150 148 151 131
0.11094 0.42418 -1.07136 146 149 129
0.11162 0.42421 -1.07145 132 135 115
0.11287 0.42446 -1.07439 108 113 95
0.11392 0.42463 -1.07619 97 98 87
0.11476 0.42471 -1.07697 99 99 92
0.11543 0.42473 -1.07691 107 108 95
0.11622 0.42479 -1.07739 120 122 102
0.09721 0.42308 -1.07113 123 125 111
0.09660 0.42243 -1.07134 125 124 106
0.09779 0.42307 -1.07071 121 119 103
0.10062 0.42328 -1.07244 121 99 91
0.10094 0.42313 -1.07024 134 129 111
0.10699 0.42340 -1.07141 134 136 114
0.10638 0.42275 -1.07162 131 134 113
0.10700 0.42275 -1.07142 130 133 114
0.10762 0.42276 -1.07122 126 129 110
0.10780 0.42349 -1.07227 128 129 111
0.10911 0.42352 -1.07217 136 137 119
0.10979 0.42355 -1.07224 141 143 125
0.11116 0.42361 -1.07243 147 150 131
0.11181 0.42362 -1.07233 133 134 116
0.11316 0.42390 -1.07579 106 107 93
0.11381 0.42324 -1.07560 96 98 87
0.11408 0.42402 -1.07698 96 97 86
0.11474 0.42335 -1.07679 98 99 87
0.11493 0.42410 -1.07776 97 99 88
0.11562 0.42412 -1.07779 104 106 92
0.11643 0.42418 -1.07834 116 119 98
0.11714 0.42421 -1.07844 120 123 97
0.11778 0.42490 -1.07822 124 127 104
0.11779 0.42422 -1.07823 123 126 101
0.12616 0.41881 -0.99706 98 101 91
0.12662 0.41835 -0.99693 100 104 95
0.12053 0.41379 -0.92775 153 152 140
0.12026 0.41379 -0.92783 151 149 136
0.12026 0.41351 -0.92784 153 146 132
0.12052 0.41407 -0.92774 153 155 142
0.12079 0.41407 -0.92766 153 157 141
0.12080 0.41379 -0.92766 154 156 141
0.09740 0.42253 -1.07252 123 122 108
0.09680 0.42188 -1.07273 122 122 99
0.09803 0.42255 -1.07242 120 118 104
0.09895 0.42271 -1.07436 95 85 78
0.09963 0.42274 -1.07453 74 50 51
0.10041 0.42282 -1.07541 84 54 56
0.10081 0.42272 -1.07370 120 99 91
0.10121 0.42262 -1.07200 134 127 109
0.10165 0.42254 -1.07065 133 134 115
0.10226 0.42319 -1.07044 135 137 119
0.10227 0.42254 -1.07046 135 136 119
0.10228 0.42190 -1.07047 134 135 117
0.10851 0.42287 -1.07249 124 127 111
0.10927 0.42293 -1.07297 137 137 121
0.10997 0.42296 -1.07319 141 141 125
0.11062 0.42298 -1.07310 147 149 133
0.11119 0.42296 -1.07254 146 148 133
0.11184 0.42297 -1.07246 131 132 117
0.09751 0.42194 -1.07328 121 118 101
0.09813 0.42194 -1.07305 119 114 98
0.09929 0.42221 -1.07670 94 82 69
0.09981 0.42217 -1.07571 75 49 45
0.10062 0.42226 -1.07680 85 54 54
0.10097 0.42213 -1.07468 118 98 93
0.10136 0.42203 -1.07293 133 125 109
0.10179 0.42195 -1.07145 132 133 113
0.10794 0.42223 -1.07296 125 125 112
0.10731 0.42222 -1.07315 129 131 115
0.10868 0.42228 -1.07338 124 123 110
0.10946 0.42234 -1.07397 139 134 120
0.11010 0.42169 -1.07379 140 136 118
0.11019 0.42238 -1.07430 141 136 120
0.11077 0.42237 -1.07382 147 145 128
0.11133 0.42235 -1.07327 146 146 131
0.11193 0.42234 -1.07289 129 130 113
0.11278 0.42243 -1.07381 102 102 88
0.11343 0.42177 -1.07362 98 97 80
0.12863 0.42210 -1.06145 125 129 110
0.12800 0.42274 -1.06162 125 131 110
0.12803 0.42145 -1.06165 121 125 104
0.12862 0.42274 -1.06143 125 131 112
0.12924 0.42275 -1.06124 126 131 114
0.12925 0.42211 -1.06125 126 130 115
0.09692 0.42130 -1.07365 118 118 100
0.09629 0.42194 -1.07383 123 122 99
0.09630 0.42129 -1.07384 119 119 102
0.09631 0.42064 -1.07386 113 112 96
0.09758 0.42132 -1.07374 118 116 98
0.09818 0.42132 -1.07334 117 111 94
0.09922 0.42152 -1.07619 92 81 68
0.09986 0.42153 -1.07601 73 50 43
0.10065 0.42161 -1.07694 86 55 53
0.10108 0.42153 -1.07539 116 97 92
0.10151 0.42144 -1.07388 128 123 109
0.10199 0.42138 -1.07269 129 130 113
0.10797 0.42158 -1.07306 124 122 114
0.10882 0.42167 -1.07408 123 121 112
0.10962 0.42174 -1.07478 136 134 120
0.11026 0.42108 -1.07460 137 136 119
0.11082 0.42173 -1.07407 145 143 121
0.11141 0.42171 -1.07360 144 144 121
0.11205 0.42172 -1.07345 126 128 106
0.11285 0.42179 -1.07410 100 101 82
0.11350 0.42113 -1.07392 98 98 81
0.09693 0.42065 -1.07363 113 110 93
0.09632 0.41999 -1.07384 105 103 87
0.09759 0.42067 -1.07372 115 109 92
0.09833 0.42073 -1.07440 114 106 90
0.09918 0.42084 -1.07582 92 79 68
0.09996 0.42092 -1.07670 74 49 45
0.10073 0.42098 -1.07740 85 55 52
0.10120 0.42092 -1.07616 113 94 87
0.10169 0.42086 -1.07503 122 118 105
0.10214 0.42080 -1.07365 123 125 111
0.10979 0.42113 -1.07566 134 134 121
0.11221 0.42111 -1.07425 121 124 105
0.11293 0.42115 -1.07446 98 100 83
0.11358 0.42049 -1.07428 101 99 82
0.09691 0.41999 -1.07343 105 103 86
0.09630 0.41934 -1.07364 97 93 80
0.09766 0.42005 -1.07419 107 101 86
0.09831 0.42007 -1.07416 107 99 86
0.09907 0.42013 -1.07492 90 74 65
0.09998 0.42026 -1.07672 75 47 42
0.10069 0.42030 -1.07712 83 52 48
0.10135 0.42032 -1.07709 107 86 80
0.10187 0.42027 -1.07612 114 107 97
0.10228 0.42019 -1.07447 113 113 103
0.11071 0.42056 -1.07696 134 135 117
0.11246 0.42053 -1.07546 113 114 98
0.11311 0.41987 -1.07528 102 98 81
0.11299 0.42050 -1.07474 100 99 82
0.11364 0.41984 -1.07456 103 101 81
0.11398 0.42042 -1.07293 107 103 85
0.11399 0.41976 -1.07294 107 104 83
0.12125 0.41514 -0.97605 135 139 117
0.12115 0.41506 -0.97471 133 137 114
0.12071 0.41250 -0.92962 142 142 118
0.12044 0.41221 -0.92972 156 153 133
0.12098 0.41250 -0.92954 145 143 123
0.09672 0.41925 -1.07191 95 93 79
0.09612 0.41860 -1.07212 88 82 72
0.09741 0.41929 -1.07227 97 93 81
0.09804 0.41930 -1.07212 97 90 79
0.09893 0.41942 -1.07390 84 68 61
0.09990 0.41956 -1.07612 73 45 41
0.10048 0.41955 -1.07561 81 48 45
0.10143 0.41968 -1.07759 100 76 71
0.10204 0.41968 -1.07717 103 94 84
0.10260 0.41966 -1.07651 102 98 89
0.11282 0.41997 -1.07728 104 104 87
0.11348 0.41930 -1.07709 104 100 80
0.11506 0.41989 -1.07484 111 107 86
0.11443 0.41922 -1.07505 106 102 79
0.11571 0.41924 -1.07465 112 108 89
0.11590 0.41996 -1.07562 115 110 89
0.11655 0.41930 -1.07544 113 108 90
0.11668 0.42000 -1.07607 115 112 93
0.11731 0.42068 -1.07586 115 117 97
0.11733 0.42001 -1.07587 114 114 96
0.09657 0.41854 -1.07069 86 82 70
0.09597 0.41790 -1.07090 83 79 68
0.09658 0.41790 -1.07071 81 79 65
0.09720 0.41791 -1.07052 81 79 62
0.09719 0.41855 -1.07057 86 84 70
0.09781 0.41856 -1.07041 85 80 66
0.09875 0.41869 -1.07254 75 62 52
0.09938 0.41805 -1.07236 69 44 39
0.09976 0.41885 -1.07509 70 45 43
0.10036 0.41884 -1.07468 78 47 49
0.10138 0.41900 -1.07717 91 68 67
0.10208 0.41903 -1.07740 92 83 73
0.10272 0.41837 -1.07722 89 86 71
0.10268 0.41902 -1.07700 92 89 76
0.10333 0.41837 -1.07681 87 88 73
0.10036 0.41819 -1.07465 77 47 48
0.10135 0.41832 -1.07687 88 67 67
0.10210 0.41837 -1.07750 89 79 69
0.10520 0.41818 -1.07206 93 90 78
0.10521 0.41753 -1.07208 96 89 78
0.10583 0.41754 -1.07188 99 91 76
0.09961 0.41749 -1.07394 69 41 39
0.10033 0.41752 -1.07436 77 46 45
0.10129 0.41764 -1.07647 92 71 62
0.10213 0.41771 -1.07760 93 83 68
0.10277 0.41772 -1.07744 93 87 72
0.10340 0.41773 -1.07724 91 89 72
0.10341 0.41707 -1.07725 96 91 76
0.09967 0.41685 -1.07428 70 43 42
0.10028 0.41685 -1.07396 77 48 44
0.10137 0.41700 -1.07693 94 76 62
0.10217 0.41706 -1.07786 98 88 72
0.10282 0.41641 -1.07767 99 93 78
0.10283 0.41708 -1.07781 96 91 76
0.10348 0.41642 -1.07763 99 93 77
0.11365 0.41294 -0.97663 107 108 90
0.11325 0.41334 -0.97674 110 109 90
0.11326 0.41294 -0.97675 111 110 91
0.11327 0.41254 -0.97676 110 108 90
0.11364 0.41335 -0.97662 108 109 89
0.11403 0.41335 -0.97650 102 104 84
0.11390 0.41293 -0.97612 102 103 84
0.11428 0.41333 -0.97599 103 100 83
0.11429 0.41293 -0.97600 103 100 81
0.11429 0.41253 -0.97601 101 99 78
0.09981 0.41624 -1.07517 70 46 43
0.10046 0.41625 -1.07514 77 49 45
0.10154 0.41639 -1.07798 96 76 66
0.10223 0.41641 -1.07819 101 90 76
0.09988 0.41560 -1.07562 68 46 43
0.09445 0.41229 -1.05403 95 88 72
0.09389 0.41169 -1.05422 99 93 73
0.09446 0.41170 -1.05404 100 92 72
0.09503 0.41170 -1.05386 100 91 72
0.08073 0.40990 -1.03367 110 104 80
0.08023 0.40937 -1.03385 115 108 90
0.08124 0.40991 -1.03351 101 95 72
0.08175 0.40939 -1.03336 97 89 72
0.08070 0.40937 -1.03316 111 103 81
0.08021 0.40884 -1.03333 114 108 94
0.08118 0.40937 -1.03274 103 94 73
0.08170 0.40885 -1.03259 98 90 73
0.08062 0.40882 -1.03198 111 104 87
0.08013 0.40830 -1.03215 113 109 90
0.08110 0.40882 -1.03160 104 96 77
0.08161 0.40831 -1.03146 98 91 70
0.08059 0.40829 -1.03144 110 105 84
0.08010 0.40777 -1.03161 112 108 83
0.08108 0.40830 -1.03118 103 96 73
0.08159 0.40778 -1.03104 98 90 65
0.08055 0.40777 -1.03078 109 105 80
0.08006 0.40724 -1.03095 111 105 82
0.08104 0.40777 -1.03064 101 96 70
0.08155 0.40726 -1.03050 97 89 66
0.09929 0.40839 -1.07537 88 83 67
0.09865 0.40904 -1.07555 94 88 73
0.09866 0.40838 -1.07556 92 87 71
0.09867 0.40773 -1.07558 92 86 69
0.09991 0.40839 -1.07517 86 79 61
0.09992 0.40774 -1.07518 85 77 59
0.08048 0.40724 -1.02980 109 103 82
0.07999 0.40672 -1.02997 110 103 82
0.08098 0.40725 -1.02970 101 96 73
0.10174 0.40778 -1.07856 93 84 67
0.10109 0.40844 -1.07874 87 79 61
0.10110 0.40778 -1.07876 87 80 63
0.10236 0.40845 -1.07834 96 89 65
0.10237 0.40779 -1.07836 96 89 70
0.10238 0.40713 -1.07838 95 88 72
0.08041 0.40672 -1.02879 108 102 83
0.07993 0.40620 -1.02896 110 103 83
0.08090 0.40672 -1.02860 101 94 75
0.08141 0.40673 -1.02865 96 87 67
0.08189 0.40725 -1.02848 98 88 69
0.08190 0.40673 -1.02849 95 86 70
0.08191 0.40622 -1.02850 93 84 64
0.10068 0.40710 -1.07585 86 77 65
0.10006 0.40709 -1.07604 85 76 62
0.10007 0.40644 -1.07606 85 76 63
0.10069 0.40644 -1.07586 85 76 64
0.10149 0.40711 -1.07682 92 83 70
0.10213 0.40646 -1.07664 96 90 72
0.08038 0.40620 -1.02827 107 100 82
0.07990 0.40569 -1.02844 112 105 86
0.08087 0.40621 -1.02815 99 92 74
0.08137 0.40570 -1.02801 92 84 67
0.08137 0.40621 -1.02806 95 85 66
0.08187 0.40571 -1.02792 91 84 65
0.10128 0.40645 -1.07537 91 83 68
0.10066 0.40579 -1.07559 87 76 58
0.10192 0.40580 -1.07519 95 88 71
0.08027 0.40569 -1.02668 107 101 82
0.07979 0.40518 -1.02684 111 105 85
0.08075 0.40570 -1.02645 97 91 73
0.08124 0.40520 -1.02631 92 85 67
0.10108 0.40579 -1.07400 92 83 66
0.10172 0.40515 -1.07382 93 87 70
0.08021 0.40519 -1.02587 107 101 80
0.07974 0.40468 -1.02603 110 105 83
0.08066 0.40520 -1.02525 98 92 71
0.08116 0.40470 -1.02511 93 84 64
0.09849 0.40514 -1.06940 87 80 59
0.09909 0.40579 -1.06919 86 76 58
0.09910 0.40515 -1.06921 85 75 54
0.09911 0.40451 -1.06922 85 75 55
0.10010 0.40515 -1.07168 87 76 57
0.10011 0.40450 -1.07170 86 75 57
0.10080 0.40515 -1.07201 91 83 65
0.10143 0.40451 -1.07183 95 85 69
0.08014 0.40469 -1.02479 107 101 80
0.07967 0.40418 -1.02495 109 102 82
0.08060 0.40470 -1.02433 99 91 70
0.08100 0.40421 -1.02308 93 84 65
0.08147 0.40471 -1.02291 92 83 66
0.08148 0.40421 -1.02293 92 83 64
0.08149 0.40372 -1.02294 91 84 70
0.07992 0.40372 -1.02168 109 98 82
0.07945 0.40322 -1.02184 110 99 84
0.08040 0.40373 -1.02160 100 90 74
0.08088 0.40324 -1.02146 92 87 70
0.10120 0.40319 -1.07451 89 78 62
0.10058 0.40253 -1.07472 85 72 59
0.10182 0.40319 -1.07431 94 82 67
0.10243 0.40385 -1.07410 95 84 69
0.10245 0.40320 -1.07412 95 85 70
0.10246 0.40255 -1.07413 96 85 68
0.07981 0.40325 -1.02018 108 98 82
0.07935 0.40276 -1.02034 110 98 84
0.09964 0.40249 -1.07729 86 77 61
0.10026 0.40315 -1.07707 84 77 56
0.10027 0.40249 -1.07709 83 72 57
0.10028 0.40183 -1.07710 82 71 59
0.07968 0.40279 -1.01833 108 97 80
0.07923 0.40230 -1.01849 108 98 83
0.08013 0.40280 -1.01801 97 90 67
0.09875 0.40186 -1.07554 89 82 63
0.09813 0.40120 -1.07575 95 84 71
0.09948 0.40185 -1.07609 85 77 60
0.10012 0.40120 -1.07591 82 72 60
0.08004 0.40234 -1.01673 96 89 74
0.08000 0.40187 -1.01615 98 91 78
0.07955 0.40139 -1.01631 106 99 83
0.12155 0.40387 -0.93320 145 146 125
0.12183 0.40387 -0.93311 135 134 115
0.12212 0.40358 -0.93303 132 130 112
0.08001 0.40140 -1.01611 99 92 79
0.07955 0.40091 -1.01626 105 98 85
0.08038 0.40143 -1.01494 93 87 73
0.08085 0.40095 -1.01481 89 85 70
0.11839 0.40339 -0.92948 112 114 100
0.11812 0.40367 -0.92956 110 112 92
0.11812 0.40338 -0.92957 108 111 95
0.11813 0.40310 -0.92957 109 110 97
0.09975 0.39832 -1.06438 88 76 65
0.09916 0.39769 -1.06459 83 73 55
0.10028 0.39834 -1.06374 92 84 71
0.10087 0.39897 -1.06354 93 87 73
0.10088 0.39834 -1.06356 92 86 71
0.10089 0.39772 -1.06357 89 88 67
0.11873 0.40280 -0.93006 114 113 95
0.11846 0.40252 -0.93016 111 112 94
0.09983 0.39768 -1.06488 86 78 61
0.10028 0.39772 -1.06370 89 83 67
0.10089 0.39710 -1.06352 89 87 61
0.11877 0.40252 -0.93013 114 115 97
0.11850 0.40223 -0.93022 111 113 98
0.07950 0.39927 -1.00921 98 93 79
0.07907 0.39881 -1.00936 105 100 82
0.07995 0.39881 -1.00908 91 90 73
0.11889 0.40222 -0.93033 115 114 100
0.11862 0.40194 -0.93042 110 112 97
0.11890 0.40194 -0.93035 114 114 97
0.11863 0.40165 -0.93044 111 110 96
0.11917 0.40166 -0.93027 128 130 111
0.07964 0.39828 -1.01079 97 96 80
0.07919 0.39828 -1.01093 104 100 83
0.07920 0.39781 -1.01094 105 100 82
0.08008 0.39828 -1.01065 92 90 76
0.12022 0.40138 -0.91911 139 129 111
0.12047 0.40113 -0.91904 135 128 110
0.11972 0.40089 -0.91881 142 136 123
0.11997 0.40089 -0.91874 135 129 113
0.11964 0.40064 -0.91869 141 134 121
0.11988 0.40065 -0.91861 133 127 110
0.12013 0.40039 -0.91854 132 122 104
0.08117 0.39384 -1.02954 99 90 78
0.08068 0.39332 -1.02970 106 100 76
0.08161 0.39389 -1.02875 90 82 70
0.08211 0.39338 -1.02861 85 79 67
0.11947 0.40041 -0.91843 138 131 115
0.11971 0.40041 -0.91836 133 124 106
0.11996 0.40016 -0.91829 132 121 104
0.10758 0.38773 -1.11091 83 76 59
0.10686 0.38772 -1.11114 82 72 55
0.10687 0.38697 -1.11116 82 73 59
0.10829 0.38849 -1.11067 85 80 66
0.10830 0.38773 -1.11069 86 80 65
0.10831 0.38698 -1.11070 87 82 65
0.11943 0.40016 -0.91838 138 131 111
0.11919 0.39990 -0.91846 143 136 114
0.11967 0.40016 -0.91830 132 121 104
0.11992 0.39991 -0.91823 129 120 103
0.11962 0.39988 -0.91866 139 132 113
0.11938 0.39963 -0.91874 143 136 118
0.11986 0.39989 -0.91858 131 122 106
0.12011 0.39963 -0.91851 130 118 103
0.11985 0.39960 -0.91900 138 131 114
0.11961 0.39935 -0.91908 142 135 118
0.12010 0.39935 -0.91893 129 122 106
0.11687 0.40012 -0.91216 139 132 111
0.11710 0.39989 -0.91209 146 138 124
0.08054 0.39192 -1.02111 102 92 76
0.08008 0.39142 -1.02127 107 97 76
0.12123 0.39787 -0.93493 109 107 93
0.12095 0.39757 -0.93503 104 101 88
0.12199 0.39780 -0.93566 122 121 105
0.11944 0.39911 -0.91883 143 135 123
0.11919 0.39937 -0.91890 142 135 118
0.11919 0.39911 -0.91890 142 134 121
0.11920 0.39886 -0.91891 142 133 123
0.08052 0.39146 -1.02074 99 91 75
0.08005 0.39096 -1.02090 107 95 81
0.08100 0.39145 -1.02068 87 79 66
0.12127 0.39756 -0.93499 109 105 96
0.12099 0.39726 -0.93509 105 101 87
0.12202 0.39750 -0.93571 125 120 108
0.12231 0.39720 -0.93563 136 130 112
0.08151 0.39094 -1.02090 81 72 57
0.08199 0.39045 -1.02077 80 74 60
0.12141 0.39724 -0.93525 110 105 91
0.12113 0.39694 -0.93534 105 100 86
0.12204 0.39719 -0.93574 125 120 105
0.12233 0.39689 -0.93566 135 130 112
0.11892 0.39868 -0.91806 141 131 118
0.11868 0.39842 -0.91814 142 131 113
0.12155 0.39692 -0.93548 110 105 91
0.12126 0.39662 -0.93557 103 101 87
0.12216 0.39687 -0.93594 126 123 108
0.12245 0.39657 -0.93586 136 130 110
0.12191 0.39656 -0.93610 110 104 89
0.12162 0.39626 -0.93620 104 102 85
0.12254 0.39651 -0.93660 129 124 105
0.12284 0.39621 -0.93652 135 129 110
0.12424 0.39571 -0.93832 126 119 103
0.12454 0.39602 -0.93822 127 120 107
0.12454 0.39571 -0.93823 124 116 100
0.12455 0.39540 -0.93824 124 113 103
0.08036 0.38781 -1.01808 97 88 73
0.08082 0.38782 -1.01781 86 76 62
0.08129 0.38734 -1.01768 81 71 52
0.12001 0.39537 -0.93338 107 103 82
0.12030 0.39508 -0.93330 115 111 91
0.07994 0.38728 -1.01860 105 94 78
0.07947 0.38727 -1.01875 106 97 76
0.07948 0.38679 -1.01876 105 95 75
0.07994 0.38679 -1.01861 104 96 78
0.08042 0.38726 -1.01871 97 87 71
0.08088 0.38727 -1.01852 85 76 57
0.08136 0.38678 -1.01839 80 73 59
0.08051 0.38666 -1.01976 98 91 76
0.08005 0.38617 -1.01992 103 96 79
0.08099 0.38665 -1.01973 84 78 64
0.08147 0.38617 -1.01959 81 70 57
0.08122 0.38586 -1.02247 86 77 65
0.08171 0.38537 -1.02234 82 70 59
0.05658 0.38708 -1.00478 72 61 57
0.05618 0.38665 -1.00492 70 59 52
0.05659 0.38665 -1.00479 73 60 61
0.05700 0.38666 -1.00466 79 67 68
0.05727 0.38201 -1.00138 63 61 58
