ply
format ascii 1.0
element face 0
property list uchar int vertex_indices
element vertex 1329
property float x
property float y
property float z
property uchar diffuse_red
property uchar diffuse_green
property uchar diffuse_blue
end_header
0.01073 0.38537 -0.91419 121 120 111
0.01123 0.38538 -0.91370 86 89 93
0.03389 0.38637 -0.94765 88 95 107
0.09434 0.38647 -0.81179 179 173 160
0.09400 0.38682 -0.81193 188 179 164
0.09400 0.38646 -0.81191 187 179 163
0.09468 0.38684 -0.81168 164 157 151
0.09468 0.38648 -0.81166 162 153 148
0.09468 0.38612 -0.81165 159 149 143
0.03375 0.38570 -0.94668 88 94 105
0.09396 0.38610 -0.81185 186 179 163
0.09362 0.38645 -0.81199 187 178 163
0.09362 0.38609 -0.81197 186 180 163
0.09362 0.38573 -0.81196 188 179 164
0.09432 0.38611 -0.81174 177 170 156
0.09466 0.38576 -0.81160 157 148 138
0.01519 0.38441 -0.91632 68 78 96
0.01467 0.38384 -0.91649 69 77 96
0.01634 0.38444 -0.91700 49 58 82
0.01687 0.38501 -0.91684 70 79 109
0.03337 0.38502 -0.94417 89 96 105
0.09415 0.38575 -0.81155 176 168 154
0.09450 0.38539 -0.81141 154 145 131
0.01689 0.38389 -0.91698 62 71 94
0.01742 0.38446 -0.91681 81 88 116
0.01742 0.38390 -0.91678 78 86 110
0.01742 0.38334 -0.91676 75 84 104
0.03319 0.38437 -0.94293 91 99 106
0.03411 0.38440 -0.94469 58 67 86
0.01625 0.38332 -0.91596 51 59 75
0.01690 0.38333 -0.91708 61 70 89
0.03195 0.38370 -0.93896 127 130 132
0.03294 0.38372 -0.94126 92 100 109
0.03206 0.38307 -0.93961 127 131 133
0.00967 0.38208 -0.91368 156 152 134
0.00916 0.38152 -0.91384 159 153 140
0.00967 0.38153 -0.91365 157 150 137
0.01019 0.38209 -0.91349 152 147 128
0.01070 0.38210 -0.91325 137 133 114
0.03216 0.38243 -0.94025 127 132 134
0.07919 0.38404 -0.80125 148 136 123
0.07949 0.38373 -0.80113 173 162 150
0.01004 0.38156 -0.91118 154 147 130
0.00954 0.38101 -0.91134 157 150 137
0.00995 0.38103 -0.90966 154 149 130
0.00945 0.38048 -0.90981 157 151 135
0.01045 0.38104 -0.90947 140 136 121
0.03231 0.38116 -0.94115 125 132 131
0.03292 0.38053 -0.94090 116 118 112
0.03239 0.38051 -0.94162 122 128 126
0.03300 0.37989 -0.94137 119 120 115
0.04136 0.38030 -0.97206 120 122 110
0.04232 0.38031 -0.97337 100 102 92
0.04326 0.38031 -0.97456 96 91 80
0.04396 0.37959 -0.97427 99 89 71
0.01112 0.38006 -0.90425 69 76 92
0.01162 0.37955 -0.90405 55 63 89
0.01813 0.37998 -0.91799 59 71 107
0.01760 0.37940 -0.91816 63 74 110
0.01866 0.37999 -0.91785 62 72 107
0.04183 0.37955 -0.97475 123 123 109
0.04114 0.37880 -0.97496 131 130 114
0.04271 0.37955 -0.97561 103 102 91
0.04354 0.37955 -0.97612 96 91 77
0.04424 0.37883 -0.97582 98 88 71
0.09997 0.38070 -0.96497 146 146 121
0.10069 0.38148 -0.96474 143 144 113
0.10069 0.38071 -0.96470 145 143 117
0.09949 0.38079 -0.95775 146 145 122
0.09878 0.38152 -0.95804 144 144 113
0.09878 0.38078 -0.95801 146 144 116
0.09948 0.38154 -0.95779 145 143 119
0.01105 0.37956 -0.90313 73 76 90
0.01154 0.37905 -0.90292 56 62 87
0.01210 0.37956 -0.90378 64 73 102
0.01210 0.38009 -0.90381 62 71 104
0.01259 0.38010 -0.90363 79 84 115
0.01269 0.37956 -0.90477 85 90 115
0.01318 0.38009 -0.90461 89 94 123
0.01318 0.37957 -0.90459 96 100 122
0.01798 0.37944 -0.91652 65 76 112
0.01746 0.37887 -0.91669 67 81 112
0.01852 0.37945 -0.91639 72 82 114
0.01914 0.37945 -0.91705 81 90 115
0.01967 0.37890 -0.91683 107 112 123
0.01970 0.37946 -0.91710 95 102 122
0.02023 0.38003 -0.91693 99 107 125
0.02023 0.37890 -0.91688 122 125 134
0.04231 0.37877 -0.97753 124 121 107
0.04309 0.37878 -0.97777 105 100 87
0.04376 0.37880 -0.97734 97 91 76
0.04447 0.37807 -0.97704 99 89 77
0.09895 0.37974 -0.97515 147 148 126
0.09820 0.38051 -0.97546 146 148 123
0.09820 0.37972 -0.97542 147 149 126
0.09820 0.37893 -0.97538 149 151 131
0.09969 0.38054 -0.97491 144 143 117
0.10005 0.37993 -0.96512 150 151 127
0.09992 0.37997 -0.96276 146 148 121
0.09980 0.38001 -0.96045 146 148 119
0.09961 0.38005 -0.95801 147 150 123
0.10814 0.38024 -0.95507 149 148 126
0.10884 0.38100 -0.95485 144 143 114
0.10886 0.38025 -0.95485 146 147 122
0.10956 0.38102 -0.95463 143 142 114
0.10823 0.38039 -0.94646 143 146 119
0.10858 0.38041 -0.94549 141 140 109
0.01098 0.37891 -0.90939 115 113 106
0.01099 0.37906 -0.90228 75 78 90
0.01204 0.37906 -0.90291 63 70 97
0.01260 0.37905 -0.90365 80 87 111
0.04161 0.37801 -0.97775 132 130 116
0.04090 0.37874 -0.97804 129 129 115
0.04091 0.37800 -0.97800 130 132 118
0.04091 0.37725 -0.97797 133 134 121
0.04264 0.37799 -0.97947 125 121 108
0.04329 0.37802 -0.97886 106 101 89
0.04389 0.37804 -0.97803 98 91 80
0.04460 0.37731 -0.97774 98 89 73
0.09876 0.37895 -0.97462 150 151 132
0.09802 0.37815 -0.97485 155 157 137
0.09999 0.37917 -0.96493 155 157 135
0.09991 0.37921 -0.96268 149 152 127
0.09984 0.37925 -0.96050 147 152 125
0.09960 0.37930 -0.95794 150 154 128
0.09947 0.37935 -0.95567 153 157 133
0.10017 0.37862 -0.95537 159 163 138
0.09943 0.37938 -0.95365 157 160 140
0.10013 0.37867 -0.95336 162 165 144
0.09973 0.37941 -0.95245 160 163 144
0.10042 0.37870 -0.95216 159 165 143
0.10612 0.37948 -0.95418 149 149 133
0.10693 0.37949 -0.95416 153 153 134
0.10764 0.37876 -0.95387 157 161 137
0.10823 0.37949 -0.95524 154 156 134
0.10895 0.37950 -0.95500 151 154 131
0.10966 0.37877 -0.95471 152 156 133
0.10862 0.37965 -0.94725 147 148 120
0.10863 0.37893 -0.94722 150 149 124
0.01086 0.37842 -0.90754 118 116 107
0.01094 0.37855 -0.90154 77 81 89
0.01148 0.37855 -0.90210 57 65 83
0.01201 0.37855 -0.90244 61 69 91
0.01256 0.37854 -0.90304 73 80 103
0.04147 0.37729 -0.97689 132 132 119
0.09840 0.37818 -0.97361 156 157 136
0.09766 0.37738 -0.97385 162 165 143
0.10002 0.37845 -0.96290 154 157 136
0.10003 0.37849 -0.96093 153 156 134
0.10075 0.37776 -0.96063 158 162 139
0.09984 0.37855 -0.95848 154 158 136
0.10055 0.37781 -0.95818 157 163 137
0.09980 0.37859 -0.95642 157 161 136
0.10050 0.37787 -0.95612 158 164 136
0.10696 0.37875 -0.95419 155 158 137
0.10626 0.37799 -0.95441 150 153 133
0.10697 0.37800 -0.95415 156 158 138
0.10767 0.37802 -0.95390 157 160 138
0.10920 0.37875 -0.95551 155 159 134
0.10920 0.37800 -0.95547 156 159 136
0.10991 0.37802 -0.95521 154 156 131
0.01074 0.37793 -0.90573 121 117 109
0.01093 0.37804 -0.90140 81 84 88
0.01148 0.37803 -0.90205 59 67 82
0.01201 0.37803 -0.90244 60 68 89
0.01254 0.37803 -0.90270 66 74 95
0.01303 0.37752 -0.90249 63 70 88
0.04121 0.37658 -0.97521 132 132 121
0.09808 0.37741 -0.97273 163 166 143
0.09734 0.37661 -0.97296 167 170 150
0.09996 0.37769 -0.96271 160 162 145
0.10007 0.37774 -0.96098 157 160 140
0.10079 0.37700 -0.96068 163 165 141
0.01007 0.37746 -0.90330 149 140 125
0.01061 0.37746 -0.90385 122 119 108
0.01093 0.37753 -0.90131 83 86 87
0.01154 0.37750 -0.90274 59 66 81
0.01208 0.37749 -0.90319 55 64 86
0.01257 0.37698 -0.90299 53 61 80
0.04113 0.37586 -0.97470 129 131 119
0.09783 0.37665 -0.97203 168 172 150
0.09709 0.37585 -0.97227 168 171 153
0.09783 0.37586 -0.97200 169 172 154
0.09857 0.37588 -0.97173 170 172 155
0.00949 0.37698 -0.90207 156 146 130
0.00901 0.37748 -0.90228 158 148 132
0.00901 0.37696 -0.90225 158 148 132
0.00901 0.37645 -0.90223 157 149 133
0.01003 0.37696 -0.90268 148 140 124
0.01059 0.37695 -0.90346 121 119 107
0.01736 0.37682 -0.91011 68 77 100
0.13813 0.37781 -0.92336 131 126 112
0.13917 0.37782 -0.92369 138 133 112
0.13982 0.37714 -0.92342 138 135 116
0.00949 0.37646 -0.90195 155 147 132
0.00901 0.37594 -0.90210 157 151 134
0.01006 0.37644 -0.90296 146 140 126
0.01062 0.37641 -0.90387 120 117 110
0.13799 0.37713 -0.92310 132 127 110
0.13865 0.37645 -0.92283 136 134 115
0.13920 0.37712 -0.92371 137 133 112
0.13986 0.37644 -0.92344 139 135 121
0.00945 0.37598 -0.90121 155 149 136
0.00896 0.37545 -0.90136 157 151 136
0.01001 0.37594 -0.90227 146 141 130
0.01057 0.37592 -0.90314 122 119 112
0.01127 0.37583 -0.90578 80 83 83
0.01177 0.37531 -0.90557 53 62 72
0.00941 0.37549 -0.90058 156 149 138
0.00893 0.37496 -0.90074 156 149 133
0.00996 0.37546 -0.90145 149 141 131
0.01050 0.37544 -0.90195 127 120 112
0.01932 0.37509 -0.91323 85 90 102
0.01984 0.37455 -0.91301 107 112 111
0.10138 0.37534 -0.92525 141 143 122
0.10106 0.37548 -0.92158 137 133 107
0.00940 0.37498 -0.90041 155 147 133
0.00892 0.37446 -0.90056 157 148 130
0.00940 0.37447 -0.90038 155 147 130
0.00993 0.37496 -0.90097 150 142 128
0.01042 0.37497 -0.90088 129 122 112
0.01098 0.37494 -0.90176 91 90 89
0.01147 0.37443 -0.90155 58 62 68
0.01939 0.37451 -0.91387 88 95 105
0.10110 0.37464 -0.92617 147 146 127
0.10047 0.37462 -0.92639 148 147 128
0.10173 0.37399 -0.92590 141 141 120
0.10147 0.37467 -0.92540 140 142 121
0.10105 0.37477 -0.92301 137 137 115
-0.00055 0.37525 -0.88105 139 127 117
-0.00098 0.37569 -0.88123 136 123 109
-0.00098 0.37524 -0.88121 135 122 111
-0.00098 0.37479 -0.88119 135 122 110
-0.00013 0.37571 -0.88092 142 133 122
-0.00013 0.37525 -0.88090 142 132 120
0.00988 0.37449 -0.90011 150 143 127
0.00940 0.37396 -0.90026 155 148 133
0.01035 0.37450 -0.89974 130 125 111
0.01106 0.37438 -0.90277 92 91 85
0.01155 0.37387 -0.90257 56 56 63
0.01702 0.37403 -0.91176 52 62 85
0.01650 0.37347 -0.91193 48 56 73
0.01702 0.37348 -0.91174 51 57 77
0.01760 0.37401 -0.91225 58 66 90
0.01826 0.37396 -0.91338 65 71 93
0.01886 0.37395 -0.91387 72 78 98
0.01943 0.37394 -0.91411 88 95 108
0.01995 0.37340 -0.91389 106 106 116
0.01990 0.37397 -0.91349 112 116 119
0.02043 0.37454 -0.91333 118 123 114
0.04401 0.37113 -0.98256 99 96 83
0.04473 0.37038 -0.98226 102 94 74
0.10127 0.37396 -0.92649 144 145 123
0.10191 0.37331 -0.92622 142 142 120
0.10135 0.37408 -0.92360 137 137 117
0.10135 0.37343 -0.92356 137 137 116
0.10197 0.37344 -0.92334 134 133 112
0.10134 0.37415 -0.92207 134 132 112
0.10196 0.37351 -0.92181 133 130 110
-0.00055 0.37478 -0.88142 138 126 114
-0.00097 0.37432 -0.88156 136 124 107
-0.00011 0.37477 -0.88158 142 131 116
0.00031 0.37523 -0.88144 146 137 123
0.00031 0.37478 -0.88142 147 137 121
0.00982 0.37402 -0.89909 150 144 129
0.00934 0.37350 -0.89924 155 149 134
0.01028 0.37404 -0.89873 131 127 110
0.01112 0.37382 -0.90352 93 90 82
0.04413 0.37034 -0.98321 101 95 85
0.04485 0.36959 -0.98291 102 94 77
-0.00055 0.37434 -0.88107 137 126 108
-0.00097 0.37388 -0.88120 135 123 105
-0.00055 0.37389 -0.88105 138 126 107
-0.00011 0.37433 -0.88138 142 131 112
0.00978 0.37354 -0.89844 151 145 131
0.01024 0.37357 -0.89800 133 128 113
0.01104 0.37336 -0.90238 93 91 82
0.01141 0.37345 -0.90053 56 55 58
0.01189 0.37397 -0.90038 44 45 60
0.00927 0.37305 -0.89808 155 147 131
0.00879 0.37355 -0.89828 155 150 132
0.00879 0.37304 -0.89826 155 148 132
0.00879 0.37254 -0.89823 157 147 130
0.00927 0.37255 -0.89806 156 146 127
0.00976 0.37306 -0.89808 152 143 127
0.01022 0.37307 -0.89777 136 129 111
0.01094 0.37291 -0.90094 96 93 82
0.00971 0.37259 -0.89733 153 143 124
0.00924 0.37208 -0.89748 155 146 129
0.01019 0.37260 -0.89718 138 132 111
0.01096 0.37239 -0.90113 100 98 86
-0.00059 0.37317 -0.87774 135 125 110
-0.00100 0.37272 -0.87787 129 120 107
0.00026 0.37315 -0.87811 147 136 119
0.00068 0.37272 -0.87794 152 138 126
0.00969 0.37211 -0.89694 152 145 129
0.00922 0.37159 -0.89709 153 148 134
0.01017 0.37211 -0.89686 138 134 118
0.01085 0.37196 -0.89959 104 103 94
-0.00060 0.37279 -0.87678 132 123 108
0.00026 0.37273 -0.87773 148 135 121
0.00068 0.37230 -0.87755 153 140 122
0.00968 0.37162 -0.89669 151 147 131
0.00920 0.37111 -0.89684 153 150 136
0.01017 0.37161 -0.89685 140 136 123
0.01083 0.37147 -0.89924 108 106 101
0.01134 0.37145 -0.89948 68 72 81
0.03486 0.36808 -0.95690 47 57 84
0.11097 0.36701 -0.97629 166 171 149
0.11145 0.36706 -0.97535 168 171 151
0.11221 0.36788 -0.97512 169 172 153
-0.00185 0.37243 -0.87537 137 126 118
-0.00226 0.37199 -0.87550 141 132 107
0.00967 0.37113 -0.89653 151 148 133
0.00920 0.37061 -0.89668 154 149 129
0.01015 0.37113 -0.89653 141 139 124
0.01074 0.37104 -0.89788 111 111 104
0.01129 0.37099 -0.89866 71 75 83
0.01178 0.37099 -0.89867 51 58 78
0.01226 0.37050 -0.89847 48 56 77
0.03485 0.36740 -0.95680 46 55 81
0.03573 0.36732 -0.95808 64 70 90
0.03669 0.36721 -0.95980 85 90 100
0.11249 0.36636 -0.97365 171 174 154
0.11324 0.36718 -0.97341 166 169 149
0.11366 0.36632 -0.97432 171 172 152
0.11442 0.36714 -0.97409 165 168 148
0.11458 0.36632 -0.97440 170 173 153
0.11533 0.36714 -0.97416 164 167 148
0.11479 0.36677 -0.96708 166 169 148
0.11553 0.36757 -0.96685 160 165 139
0.11484 0.36688 -0.96531 164 168 144
0.11557 0.36768 -0.96507 160 164 139
0.11491 0.36699 -0.96359 162 166 141
0.11564 0.36778 -0.96336 157 161 139
0.11564 0.36700 -0.96332 159 163 139
-0.00185 0.37199 -0.87550 135 126 108
-0.00226 0.37155 -0.87562 140 130 103
-0.00185 0.37155 -0.87547 136 126 105
-0.00144 0.37198 -0.87557 130 117 104
-0.00061 0.37197 -0.87576 127 114 94
-0.00019 0.37195 -0.87615 134 123 103
0.00967 0.37062 -0.89654 152 145 127
0.00920 0.37011 -0.89669 156 148 127
0.01020 0.37059 -0.89708 143 138 120
0.01075 0.37053 -0.89799 115 113 103
0.01136 0.37042 -0.89964 73 78 84
0.01187 0.37041 -0.89978 49 58 76
0.01236 0.36991 -0.89958 47 57 80
0.03473 0.36677 -0.95591 43 53 77
0.03555 0.36671 -0.95686 62 69 88
0.03646 0.36662 -0.95830 85 90 102
0.03734 0.36654 -0.95944 76 84 93
0.11490 0.36621 -0.96353 167 169 150
-0.00144 0.37155 -0.87547 132 120 102
-0.00185 0.37111 -0.87560 138 124 108
-0.00143 0.37112 -0.87545 131 120 105
-0.00102 0.37113 -0.87530 128 117 101
-0.00061 0.37155 -0.87555 127 116 92
0.00024 0.37148 -0.87646 144 132 117
0.00067 0.37144 -0.87709 152 138 123
0.00109 0.37189 -0.87696 154 141 119
0.00109 0.37145 -0.87693 154 141 122
0.00109 0.37101 -0.87691 152 142 123
0.00968 0.37012 -0.89653 153 144 123
0.00921 0.36961 -0.89668 156 148 130
0.01022 0.37006 -0.89736 145 137 116
0.01075 0.37003 -0.89791 120 114 102
0.01136 0.36991 -0.89958 77 77 83
0.01187 0.36990 -0.89968 50 57 76
0.01235 0.36940 -0.89948 46 58 79
0.03472 0.36610 -0.95581 43 51 77
0.03408 0.36540 -0.95601 42 49 78
0.03550 0.36605 -0.95643 61 69 91
0.03630 0.36600 -0.95719 83 90 105
0.03721 0.36590 -0.95862 72 80 93
0.03825 0.36576 -0.96073 50 58 77
0.03901 0.36573 -0.96113 47 55 75
0.03994 0.36564 -0.96245 75 79 89
0.04083 0.36556 -0.96355 95 95 88
0.04150 0.36487 -0.96327 101 96 78
0.08970 0.37548 -0.81459 126 121 108
0.08936 0.37510 -0.81470 129 119 106
-0.00308 0.37114 -0.87525 149 138 111
-0.00349 0.37156 -0.87542 151 139 120
-0.00349 0.37113 -0.87540 152 139 119
-0.00349 0.37069 -0.87537 152 139 122
-0.00267 0.37158 -0.87512 143 133 102
-0.00267 0.37115 -0.87499 146 134 105
-0.00226 0.37116 -0.87484 144 128 106
-0.00059 0.37105 -0.87645 128 117 100
-0.00101 0.37060 -0.87658 128 115 106
-0.00059 0.37061 -0.87643 129 116 106
0.00070 0.37092 -0.87818 151 140 123
0.00112 0.37049 -0.87800 151 141 122
0.00967 0.36963 -0.89633 153 146 127
0.00920 0.36912 -0.89648 154 148 133
0.01021 0.36957 -0.89720 145 137 118
0.01078 0.36949 -0.89833 121 115 101
0.01137 0.36940 -0.89962 80 79 78
0.01189 0.36938 -0.89984 51 58 72
0.01237 0.36888 -0.89964 46 58 75
0.03462 0.36546 -0.95510 44 51 78
0.03398 0.36477 -0.95530 40 50 83
0.03544 0.36540 -0.95602 61 68 93
0.03620 0.36536 -0.95650 82 90 107
0.03718 0.36523 -0.95836 71 79 94
0.03828 0.36505 -0.96085 49 56 78
0.03894 0.36506 -0.96067 48 55 76
0.03984 0.36498 -0.96183 76 81 91
0.04051 0.36429 -0.96155 94 96 90
0.04067 0.36493 -0.96255 96 97 88
0.04134 0.36424 -0.96228 99 95 80
0.09007 0.37508 -0.81500 128 120 103
0.08973 0.37471 -0.81510 131 119 104
-0.00226 0.37072 -0.87490 143 129 109
0.00027 0.37052 -0.87759 144 131 116
0.00069 0.37009 -0.87742 149 135 124
0.00071 0.37045 -0.87858 150 138 121
0.00113 0.37001 -0.87840 150 138 124
0.00969 0.36911 -0.89665 152 147 134
0.00922 0.36859 -0.89680 155 149 135
0.01023 0.36905 -0.89740 145 139 123
0.01076 0.36901 -0.89795 122 118 101
0.01142 0.36884 -0.90016 81 83 74
0.01195 0.36881 -0.90059 53 61 68
0.01244 0.36831 -0.90039 45 57 74
0.03451 0.36484 -0.95435 42 51 82
0.03388 0.36415 -0.95455 40 52 84
0.03530 0.36478 -0.95507 60 67 93
0.03594 0.36412 -0.95480 85 91 108
0.03605 0.36475 -0.95552 85 90 108
0.03693 0.36465 -0.95675 71 80 91
-0.00267 0.37031 -0.87459 148 138 116
-0.00307 0.36987 -0.87472 153 141 120
-0.00267 0.36988 -0.87457 150 139 118
-0.00226 0.37031 -0.87466 142 131 111
-0.00185 0.37029 -0.87490 137 125 110
-0.00059 0.37016 -0.87645 127 116 101
-0.00059 0.36973 -0.87643 126 116 97
-0.00016 0.37013 -0.87690 134 121 108
0.00027 0.37007 -0.87770 143 128 118
0.00069 0.36963 -0.87753 148 135 126
0.00971 0.36858 -0.89692 152 147 134
0.00924 0.36807 -0.89707 157 148 135
0.01024 0.36853 -0.89754 145 141 125
0.01077 0.36849 -0.89805 124 121 104
0.01146 0.36829 -0.90063 83 86 77
0.01202 0.36823 -0.90148 53 60 67
0.01251 0.36772 -0.90127 46 56 76
0.03441 0.36422 -0.95360 42 54 83
0.03377 0.36353 -0.95380 39 53 80
0.03512 0.36419 -0.95387 61 69 93
0.03576 0.36353 -0.95360 86 92 106
0.03671 0.36408 -0.95531 70 78 90
-0.00225 0.36984 -0.87504 145 133 113
-0.00184 0.36982 -0.87525 139 128 110
-0.00143 0.36978 -0.87580 132 123 106
-0.00101 0.36935 -0.87563 130 119 101
0.00976 0.36802 -0.89759 153 147 131
0.00929 0.36751 -0.89774 157 147 136
0.01029 0.36798 -0.89815 147 142 124
0.01082 0.36794 -0.89861 125 124 108
0.03421 0.36364 -0.95228 43 55 81
0.03358 0.36296 -0.95248 39 52 80
0.03492 0.36362 -0.95249 62 70 91
0.03642 0.36353 -0.95350 71 79 93
0.09098 0.37390 -0.81597 129 121 108
0.09063 0.37353 -0.81608 127 118 104
-0.00431 0.36929 -0.87672 161 146 129
-0.00472 0.36971 -0.87689 163 151 132
-0.00472 0.36928 -0.87687 165 151 134
-0.00472 0.36884 -0.87685 163 150 131
-0.00390 0.36973 -0.87659 155 143 125
-0.00390 0.36930 -0.87657 157 142 126
-0.00225 0.36931 -0.87621 146 132 113
-0.00266 0.36887 -0.87634 149 134 119
-0.00225 0.36888 -0.87619 146 131 114
-0.00183 0.36889 -0.87604 142 129 110
-0.00141 0.36925 -0.87695 135 123 106
-0.00100 0.36882 -0.87678 131 120 102
-0.00013 0.36911 -0.87858 131 120 105
-0.00055 0.36865 -0.87871 129 119 103
0.00031 0.36905 -0.87931 138 128 115
0.00075 0.36898 -0.88016 145 135 122
0.00117 0.36944 -0.88002 149 138 124
0.00117 0.36899 -0.88000 147 136 122
0.00118 0.36854 -0.87998 146 135 121
0.00981 0.36747 -0.89817 156 145 133
0.00933 0.36696 -0.89832 157 146 132
0.00981 0.36697 -0.89814 154 144 130
0.01032 0.36744 -0.89851 150 142 126
0.01078 0.36747 -0.89808 128 125 112
0.01126 0.36698 -0.89788 95 95 91
0.03399 0.36309 -0.95073 43 53 81
0.03336 0.36241 -0.95093 39 51 81
0.03476 0.36303 -0.95143 60 68 89
0.03550 0.36299 -0.95188 85 91 104
-0.00431 0.36888 -0.87633 161 147 128
-0.00471 0.36844 -0.87646 161 147 129
-0.00389 0.36892 -0.87583 157 141 126
-0.00348 0.36936 -0.87570 155 139 126
-0.00348 0.36893 -0.87568 153 137 125
-0.00348 0.36849 -0.87566 151 135 125
-0.00012 0.36862 -0.87904 131 121 107
-0.00054 0.36817 -0.87917 129 118 102
0.00031 0.36857 -0.87969 137 127 113
0.00075 0.36852 -0.88025 143 133 119
0.00118 0.36808 -0.88008 147 134 124
0.03405 0.36239 -0.95111 42 53 82
0.03342 0.36171 -0.95131 38 50 79
0.03483 0.36233 -0.95180 58 69 88
0.03550 0.36232 -0.95184 84 91 102
0.03605 0.36238 -0.95106 72 80 89
0.10999 0.36062 -0.96560 203 208 193
0.09094 0.37317 -0.81588 132 125 112
0.09059 0.37279 -0.81599 124 117 110
-0.00430 0.36847 -0.87598 159 144 127
-0.00471 0.36803 -0.87611 160 145 130
-0.00430 0.36804 -0.87596 158 141 128
-0.00389 0.36805 -0.87581 152 136 125
-0.00010 0.36809 -0.88008 131 120 105
-0.00053 0.36763 -0.88021 128 118 100
-0.00010 0.36764 -0.88005 130 120 103
0.00033 0.36805 -0.88042 137 125 110
0.00077 0.36803 -0.88067 143 131 118
0.00119 0.36759 -0.88049 148 136 123
0.10974 0.35989 -0.96498 206 211 197
0.00035 0.36754 -0.88112 137 125 108
-0.00008 0.36708 -0.88125 128 121 103
0.00078 0.36752 -0.88130 144 132 117
0.00121 0.36708 -0.88112 148 136 122
0.10321 0.35895 -0.96752 206 213 199
0.10946 0.35918 -0.96430 214 221 206
0.10978 0.35928 -0.96311 209 215 200
-0.00347 0.36772 -0.87458 147 133 117
-0.00307 0.36816 -0.87445 148 135 120
-0.00306 0.36773 -0.87443 145 131 117
-0.00306 0.36730 -0.87441 144 129 117
-0.00095 0.36722 -0.87980 131 123 107
-0.00138 0.36721 -0.87995 137 128 112
-0.00095 0.36677 -0.87978 131 122 110
-0.00053 0.36723 -0.87964 127 120 103
-0.00053 0.36678 -0.87962 128 120 108
0.00035 0.36710 -0.88093 136 126 109
-0.00008 0.36664 -0.88107 128 120 107
0.00078 0.36708 -0.88110 144 132 117
0.00121 0.36664 -0.88092 147 137 121
0.08764 0.35809 -0.97026 191 193 182
0.10261 0.35832 -0.96601 211 215 204
0.10278 0.35846 -0.96438 224 227 217
0.10968 0.35853 -0.96282 216 222 207
0.11051 0.35853 -0.96278 209 213 198
-0.00347 0.36727 -0.87473 146 132 117
-0.00306 0.36685 -0.87456 144 131 117
0.00035 0.36665 -0.88088 135 124 110
-0.00008 0.36619 -0.88101 130 118 108
0.00078 0.36664 -0.88097 143 133 116
0.00121 0.36620 -0.88079 148 137 118
0.01101 0.36399 -0.90814 148 143 125
0.01145 0.36409 -0.90703 136 133 114
0.10195 0.35770 -0.96435 212 216 204
0.10286 0.35767 -0.96453 223 227 215
0.10887 0.35776 -0.96286 220 223 207
0.10952 0.35780 -0.96242 214 218 201
0.11025 0.35704 -0.96211 187 193 172
0.11076 0.35770 -0.96330 203 207 187
0.12102 0.36440 -0.89025 124 121 105
0.12157 0.36501 -0.89007 130 123 106
0.12157 0.36442 -0.89004 129 122 108
-0.00347 0.36689 -0.87417 147 135 117
-0.00306 0.36647 -0.87400 146 133 116
0.01102 0.36345 -0.90811 148 141 125
0.01051 0.36291 -0.90827 152 146 130
0.01147 0.36353 -0.90722 136 133 117
0.12135 0.36376 -0.89069 118 115 97
0.12213 0.36374 -0.89082 126 121 104
0.12269 0.36435 -0.89064 129 122 105
0.12269 0.36375 -0.89061 127 122 104
-0.00347 0.36645 -0.87423 149 137 117
-0.00306 0.36603 -0.87406 147 133 119
0.00077 0.36579 -0.88031 143 130 113
0.00120 0.36535 -0.88014 147 133 115
0.00121 0.36577 -0.88052 148 135 117
0.00163 0.36623 -0.88038 149 139 118
0.00163 0.36578 -0.88036 149 136 119
0.00163 0.36533 -0.88034 149 134 119
0.01090 0.36308 -0.90643 148 141 127
0.01041 0.36254 -0.90659 155 146 132
0.01139 0.36312 -0.90602 137 134 120
0.01201 0.36297 -0.90743 105 107 97
0.01273 0.36334 -0.90360 45 54 70
0.01323 0.36283 -0.90339 43 48 76
0.12050 0.36320 -0.89044 100 96 81
0.11994 0.36260 -0.89062 102 95 82
0.12050 0.36261 -0.89041 99 94 82
0.12152 0.36314 -0.89092 105 105 88
0.12237 0.36311 -0.89113 118 116 96
0.00076 0.36538 -0.87991 142 129 112
0.00119 0.36494 -0.87974 145 134 112
0.01081 0.36270 -0.90498 149 143 126
0.01031 0.36216 -0.90514 155 145 129
0.01129 0.36272 -0.90468 139 136 116
0.01180 0.36272 -0.90469 110 111 96
0.01225 0.36279 -0.90387 66 73 74
0.01275 0.36280 -0.90370 43 52 71
0.01324 0.36229 -0.90349 43 51 79
0.03719 0.35782 -0.94950 64 64 79
0.12175 0.36251 -0.89122 100 96 86
0.12119 0.36190 -0.89140 100 93 83
0.12176 0.36191 -0.89119 98 92 80
0.12253 0.36249 -0.89133 110 105 91
0.12365 0.36241 -0.89192 120 117 97
-0.00386 0.36569 -0.87327 154 140 122
-0.00427 0.36525 -0.87339 157 144 126
0.00033 0.36498 -0.87947 135 121 107
0.00077 0.36493 -0.87993 141 128 110
0.00119 0.36449 -0.87975 145 134 113
0.01077 0.36224 -0.90437 151 143 124
0.01027 0.36170 -0.90452 151 145 126
0.01126 0.36226 -0.90412 142 138 116
0.01172 0.36230 -0.90358 115 114 100
0.01228 0.36223 -0.90424 70 76 80
0.01276 0.36227 -0.90377 45 55 75
0.01325 0.36176 -0.90356 44 53 78
0.03676 0.35700 -0.95094 62 64 78
0.03748 0.35696 -0.95123 53 56 73
0.12267 0.36187 -0.89149 102 97 83
0.12210 0.36126 -0.89167 99 93 81
0.12360 0.36182 -0.89182 111 108 90
-0.00386 0.36536 -0.87233 156 141 123
-0.00426 0.36493 -0.87245 157 144 125
-0.00385 0.36493 -0.87231 156 141 125
-0.00345 0.36537 -0.87215 151 136 117
-0.00305 0.36581 -0.87203 147 132 118
-0.00305 0.36538 -0.87200 147 133 116
-0.00305 0.36496 -0.87198 147 134 119
-0.00010 0.36459 -0.87900 129 117 104
-0.00053 0.36503 -0.87917 128 116 104
-0.00052 0.36458 -0.87915 127 115 98
-0.00010 0.36414 -0.87897 129 116 102
0.00033 0.36456 -0.87923 135 121 110
0.00076 0.36452 -0.87956 141 128 112
0.00119 0.36408 -0.87938 145 133 117
0.01069 0.36184 -0.90316 149 142 125
0.01020 0.36131 -0.90332 149 143 124
0.01069 0.36132 -0.90314 148 141 124
0.01124 0.36176 -0.90381 144 137 118
0.01174 0.36176 -0.90372 117 115 100
0.01238 0.36157 -0.90543 75 79 80
0.01284 0.36164 -0.90471 48 56 75
0.08885 0.35454 -0.95978 194 201 188
0.08956 0.35382 -0.95949 190 194 180
0.08969 0.35452 -0.95989 194 197 185
0.09040 0.35379 -0.95960 184 189 175
0.12264 0.36128 -0.89142 97 92 79
0.12208 0.36067 -0.89160 101 93 77
0.12265 0.36068 -0.89139 97 91 79
0.12356 0.36123 -0.89173 101 100 82
0.12450 0.36129 -0.89104 123 122 101
0.12506 0.36190 -0.89086 127 120 103
0.12506 0.36130 -0.89083 125 121 103
-0.00095 0.36415 -0.87904 136 123 105
-0.00052 0.36413 -0.87915 130 117 101
-0.00010 0.36369 -0.87897 131 115 103
0.00033 0.36412 -0.87914 133 120 106
0.01123 0.36125 -0.90369 143 137 120
0.01174 0.36124 -0.90368 119 116 100
0.01237 0.36107 -0.90518 75 80 74
0.01276 0.36123 -0.90365 47 55 68
0.01324 0.36125 -0.90339 43 50 73
0.01374 0.36178 -0.90323 44 52 77
0.01374 0.36126 -0.90321 42 50 73
0.12350 0.36075 -0.89059 104 103 86
0.12383 0.36081 -0.89006 117 113 96
-0.00541 0.36481 -0.86982 143 132 121
-0.00581 0.36522 -0.86998 137 127 115
-0.00581 0.36480 -0.86996 136 126 115
-0.00581 0.36439 -0.86994 135 123 111
-0.00502 0.36479 -0.86994 151 140 127
-0.00462 0.36438 -0.86978 158 145 131
-0.00052 0.36367 -0.87926 132 117 106
-0.00009 0.36323 -0.87909 129 114 103
0.00033 0.36370 -0.87889 133 119 106
0.00119 0.36363 -0.87934 144 132 117
0.00161 0.36409 -0.87921 146 134 119
0.00161 0.36364 -0.87919 147 135 119
0.00162 0.36319 -0.87917 148 135 119
0.01072 0.36075 -0.90355 147 142 119
0.01023 0.36074 -0.90373 149 144 124
0.01125 0.36071 -0.90385 142 138 114
0.01177 0.36069 -0.90395 119 117 98
0.01227 0.36068 -0.90396 75 79 70
0.01271 0.36077 -0.90302 44 52 59
0.01316 0.36084 -0.90234 39 47 63
0.01373 0.36074 -0.90312 37 48 65
0.01423 0.36076 -0.90294 35 48 67
0.05168 0.35046 -0.98897 99 90 66
0.05093 0.35123 -0.98928 98 88 70
0.05094 0.35044 -0.98924 97 86 70
0.05094 0.34966 -0.98920 97 89 71
0.05168 0.34968 -0.98893 97 89 69
0.05242 0.35126 -0.98874 104 95 72
0.12306 0.36046 -0.88792 116 113 95
0.12282 0.36061 -0.88660 124 121 102
0.12337 0.36121 -0.88643 128 121 101
0.12337 0.36063 -0.88640 126 122 102
0.12338 0.36004 -0.88637 124 119 98
-0.00540 0.36445 -0.86931 142 130 120
-0.00540 0.36403 -0.86928 143 129 120
0.00033 0.36323 -0.87902 131 119 111
0.00119 0.36317 -0.87940 145 132 118
0.00162 0.36273 -0.87923 148 134 123
0.01074 0.36020 -0.90376 150 144 121
0.01131 0.36010 -0.90459 144 139 113
0.01184 0.36006 -0.90484 119 118 96
0.01231 0.36010 -0.90439 75 79 69
0.01266 0.36033 -0.90230 42 49 54
0.01315 0.35982 -0.90209 33 42 52
0.01311 0.36039 -0.90168 34 43 54
0.01360 0.35989 -0.90148 33 42 54
0.01364 0.36035 -0.90201 33 43 55
0.01414 0.35984 -0.90180 35 42 56
0.03520 0.35353 -0.95800 41 51 79
0.03455 0.35420 -0.95828 36 50 74
0.03455 0.35351 -0.95824 38 48 77
0.03456 0.35283 -0.95821 40 49 80
0.03521 0.35284 -0.95797 41 49 78
0.08864 0.35136 -0.96802 168 173 161
0.08865 0.35060 -0.96798 169 174 159
0.08937 0.35061 -0.96772 167 173 159
0.08992 0.35145 -0.96701 168 176 162
0.09064 0.35071 -0.96671 176 183 173
0.12224 0.35991 -0.88772 98 95 81
0.12169 0.35931 -0.88789 96 89 73
0.12222 0.36003 -0.88669 108 108 93
0.12226 0.36013 -0.88578 120 118 100
-0.00502 0.36393 -0.87011 153 139 129
0.00035 0.36266 -0.88001 127 119 108
-0.00007 0.36220 -0.88015 122 115 95
0.00035 0.36221 -0.87999 125 119 100
0.00122 0.36261 -0.88030 144 131 121
0.00165 0.36217 -0.88012 150 134 124
0.01135 0.35951 -0.90508 146 139 118
0.01184 0.35953 -0.90480 124 119 100
0.01227 0.35964 -0.90384 75 77 68
0.01265 0.35982 -0.90224 41 47 52
0.03642 0.35242 -0.96133 49 57 81
0.03576 0.35171 -0.96154 40 49 77
0.03713 0.35240 -0.96141 70 76 94
0.04013 0.35269 -0.95845 93 91 93
0.04078 0.35201 -0.95817 103 95 82
0.09038 0.35053 -0.96826 170 178 165
0.09111 0.34978 -0.96796 175 181 171
0.12218 0.35933 -0.88760 95 89 77
0.12163 0.35873 -0.88777 101 91 77
0.12218 0.35875 -0.88757 98 88 77
-0.00541 0.36354 -0.86992 140 125 124
-0.00581 0.36353 -0.87007 132 118 116
-0.00580 0.36311 -0.87004 132 119 113
-0.00541 0.36312 -0.86990 139 124 121
-0.00502 0.36348 -0.87033 152 136 129
0.00080 0.36209 -0.88095 135 124 112
0.00081 0.36164 -0.88092 135 123 110
0.01145 0.35882 -0.90640 148 140 123
0.01095 0.35828 -0.90656 153 142 132
0.01198 0.35879 -0.90657 127 124 104
0.01240 0.35892 -0.90536 82 84 73
0.01274 0.35918 -0.90320 45 53 58
0.01319 0.35924 -0.90256 36 45 59
0.01370 0.35923 -0.90260 37 45 61
0.03663 0.35156 -0.96261 48 57 83
0.03729 0.35088 -0.96233 64 72 92
0.03736 0.35153 -0.96280 65 75 92
0.03806 0.35152 -0.96277 58 68 83
0.03868 0.35156 -0.96228 42 54 75
0.03934 0.35158 -0.96200 43 53 72
0.03979 0.35175 -0.96052 66 70 80
0.04024 0.35191 -0.95908 93 90 88
0.04090 0.35123 -0.95880 101 94 86
0.08797 0.34980 -0.96832 166 172 159
0.08724 0.34979 -0.96859 167 174 162
0.08869 0.34982 -0.96806 163 172 157
0.08967 0.34974 -0.96851 165 173 161
0.08967 0.34898 -0.96847 162 170 158
0.09040 0.34899 -0.96821 167 174 165
-0.00504 0.36293 -0.87144 150 135 128
-0.00463 0.36251 -0.87127 157 144 132
0.01157 0.35809 -0.90797 150 141 126
0.01106 0.35755 -0.90813 152 142 128
0.01207 0.35810 -0.90779 130 127 111
0.01241 0.35838 -0.90545 88 91 88
0.01286 0.35847 -0.90462 52 61 75
0.01333 0.35852 -0.90417 42 51 73
0.01383 0.35800 -0.90396 43 53 82
0.03668 0.35083 -0.96287 47 57 83
0.03885 0.35073 -0.96327 42 51 72
0.03950 0.35076 -0.96291 42 51 74
0.04004 0.35087 -0.96192 65 70 84
0.04035 0.35114 -0.95964 91 90 92
0.04101 0.35046 -0.95936 99 96 81
0.08793 0.34905 -0.96815 159 164 154
0.08865 0.34831 -0.96785 158 162 153
0.08879 0.34902 -0.96830 158 167 154
0.08952 0.34827 -0.96799 162 166 156
-0.00544 0.36245 -0.87189 139 126 117
-0.00584 0.36244 -0.87204 132 119 106
-0.00584 0.36202 -0.87202 130 118 103
0.01170 0.35733 -0.90975 151 141 125
0.01119 0.35678 -0.90991 152 144 123
0.01222 0.35733 -0.90964 133 128 115
0.01259 0.35757 -0.90769 93 95 94
0.01287 0.35793 -0.90476 57 65 81
0.01338 0.35793 -0.90466 45 54 81
0.01388 0.35741 -0.90445 42 54 83
0.03665 0.35015 -0.96266 44 54 82
0.03599 0.34943 -0.96287 36 49 78
0.03884 0.35004 -0.96313 40 51 77
0.03948 0.35007 -0.96274 40 50 77
0.04007 0.35014 -0.96207 64 70 87
0.04041 0.35040 -0.95993 90 92 89
0.04107 0.34972 -0.95965 101 98 79
0.05477 0.34653 -0.98824 99 94 74
0.05403 0.34730 -0.98855 98 90 64
0.05403 0.34652 -0.98852 97 89 68
0.05551 0.34734 -0.98801 101 97 71
0.05552 0.34655 -0.98797 101 97 78
0.05552 0.34577 -0.98793 102 96 78
0.08786 0.34832 -0.96791 157 160 149
0.08858 0.34757 -0.96761 159 162 153
-0.00545 0.36191 -0.87284 138 125 115
-0.00585 0.36147 -0.87296 130 117 103
-0.00467 0.36161 -0.87498 156 143 131
-0.00426 0.36119 -0.87481 158 146 122
0.01168 0.35683 -0.90941 151 141 125
0.01117 0.35628 -0.90957 150 144 127
0.01220 0.35683 -0.90933 136 129 115
0.01261 0.35700 -0.90792 98 98 95
0.01296 0.35726 -0.90584 59 66 82
0.01349 0.35723 -0.90596 44 55 82
0.01399 0.35671 -0.90575 45 53 83
0.03662 0.34947 -0.96242 44 53 78
0.03596 0.34876 -0.96263 38 50 79
0.03729 0.34879 -0.96215 58 67 85
0.04046 0.34967 -0.96015 89 91 85
0.04112 0.34899 -0.95988 101 99 82
0.05384 0.34586 -0.98753 96 89 70
0.05310 0.34662 -0.98784 99 87 68
0.05310 0.34584 -0.98780 96 85 68
0.05311 0.34506 -0.98776 91 85 67
0.05385 0.34507 -0.98749 93 87 66
0.05458 0.34587 -0.98726 100 94 75
0.10806 0.36493 -0.82785 137 127 117
0.10845 0.36536 -0.82772 138 128 112
0.10845 0.36494 -0.82770 138 128 116
0.10846 0.36452 -0.82768 139 127 116
-0.00545 0.36145 -0.87307 137 124 112
-0.00585 0.36101 -0.87319 131 116 105
-0.00467 0.36112 -0.87541 154 143 124
-0.00426 0.36070 -0.87524 158 145 122
0.01164 0.35636 -0.90885 149 141 129
0.01114 0.35581 -0.90901 148 142 127
0.01215 0.35637 -0.90867 138 131 120
0.01277 0.35619 -0.90997 104 102 99
0.01309 0.35653 -0.90732 64 69 82
0.01358 0.35656 -0.90698 46 55 80
0.01409 0.35604 -0.90677 46 53 80
0.03643 0.34894 -0.96112 44 54 81
0.03577 0.34823 -0.96132 36 47 74
0.04044 0.34899 -0.95999 89 90 89
0.04110 0.34830 -0.95972 101 97 87
0.05446 0.34517 -0.98662 99 91 73
0.05373 0.34437 -0.98685 92 87 71
0.05447 0.34439 -0.98658 96 89 74
0.05549 0.34500 -0.98774 102 95 77
0.05623 0.34580 -0.98751 102 98 78
0.05623 0.34502 -0.98747 102 97 78
0.05624 0.34423 -0.98743 96 94 73
0.10558 0.36478 -0.82628 164 156 138
0.10519 0.36518 -0.82645 173 168 152
0.10558 0.36437 -0.82626 162 152 133
0.10816 0.36442 -0.82850 145 134 122
0.10856 0.36401 -0.82834 136 125 108
0.10875 0.36440 -0.82857 138 125 114
0.10915 0.36399 -0.82840 137 126 108
-0.00546 0.36094 -0.87365 136 123 111
-0.00586 0.36050 -0.87378 130 118 105
-0.00546 0.36051 -0.87363 134 124 112
0.01161 0.35589 -0.90836 147 141 129
0.01111 0.35534 -0.90852 149 142 125
0.01287 0.35548 -0.91119 107 104 101
0.03626 0.34839 -0.96001 41 52 75
0.03561 0.34768 -0.96021 37 48 74
0.04029 0.34841 -0.95909 88 90 93
0.04095 0.34773 -0.95882 98 95 83
0.05559 0.34415 -0.98814 98 92 73
0.05485 0.34335 -0.98837 95 85 76
0.05633 0.34339 -0.98783 93 91 72
0.10921 0.36383 -0.82960 141 130 113
0.10921 0.36341 -0.82958 138 130 112
0.10961 0.36342 -0.82943 135 128 108
0.01156 0.35546 -0.90755 147 140 126
0.01106 0.35492 -0.90771 150 142 127
0.03615 0.34780 -0.95921 42 52 74
0.03550 0.34710 -0.95941 37 48 75
0.03680 0.34713 -0.95893 57 61 82
0.04009 0.34788 -0.95786 88 87 92
0.04075 0.34720 -0.95759 97 93 79
0.05005 0.34405 -0.98415 98 91 76
0.04932 0.34481 -0.98445 102 91 79
0.04933 0.34404 -0.98441 99 91 79
0.05005 0.34482 -0.98418 102 91 78
0.05078 0.34407 -0.98388 95 89 67
0.05079 0.34330 -0.98384 92 87 70
0.07364 0.34366 -0.98234 104 102 87
0.07290 0.34444 -0.98265 104 105 85
0.07290 0.34365 -0.98261 105 101 86
0.07290 0.34286 -0.98257 103 102 84
0.07365 0.34288 -0.98230 103 97 81
0.07439 0.34447 -0.98210 107 109 92
-0.00092 0.35914 -0.87956 134 123 108
-0.00134 0.35868 -0.87969 140 128 111
0.01149 0.35506 -0.90654 149 140 127
0.01099 0.35452 -0.90670 150 144 126
0.01149 0.35453 -0.90652 148 143 127
0.01200 0.35506 -0.90646 140 132 118
0.04919 0.34337 -0.98364 94 89 75
0.04846 0.34412 -0.98394 100 90 79
0.04846 0.34335 -0.98391 96 89 75
0.04847 0.34258 -0.98387 96 89 72
0.04992 0.34262 -0.98334 94 84 66
0.07468 0.34275 -0.98304 105 101 85
0.07394 0.34194 -0.98327 100 95 80
0.07555 0.34270 -0.98321 104 105 89
0.07630 0.34351 -0.98297 106 108 93
0.07630 0.34271 -0.98293 105 106 93
-0.00092 0.35876 -0.87899 138 125 110
-0.00134 0.35831 -0.87912 140 128 111
-0.00092 0.35832 -0.87897 140 126 110
0.12055 0.35562 -0.87652 108 105 89
0.12108 0.35619 -0.87635 122 110 99
0.12060 0.35574 -0.87568 114 111 97
0.12113 0.35631 -0.87552 121 111 99
0.01169 0.35361 -0.90917 150 141 125
0.01118 0.35360 -0.90936 152 142 124
0.01118 0.35306 -0.90933 151 142 125
0.01169 0.35307 -0.90915 151 141 125
0.01228 0.35293 -0.90999 145 134 122
0.01177 0.35238 -0.91015 152 142 126
0.01233 0.35229 -0.91066 147 138 123
0.01182 0.35173 -0.91082 150 141 127
0.01285 0.35229 -0.91050 121 117 107
0.01342 0.35220 -0.91104 79 81 86
0.01405 0.35201 -0.91218 52 58 80
0.01457 0.35147 -0.91196 46 55 80
0.00148 0.35783 -0.87272 142 130 116
0.00107 0.35826 -0.87289 135 126 109
0.00107 0.35783 -0.87287 135 124 108
0.00107 0.35739 -0.87285 134 120 107
0.00189 0.35828 -0.87259 145 134 118
0.00189 0.35784 -0.87257 146 135 121
0.01240 0.35162 -0.91146 147 138 122
0.01189 0.35106 -0.91162 150 139 125
0.01291 0.35163 -0.91127 125 121 107
0.01337 0.35176 -0.91032 82 84 84
0.03932 0.34444 -0.95310 79 79 83
0.03996 0.34377 -0.95283 92 89 76
0.00188 0.35749 -0.87204 146 133 121
0.00228 0.35793 -0.87191 146 134 121
0.00228 0.35750 -0.87189 146 134 121
0.00229 0.35707 -0.87187 146 133 118
0.01229 0.35131 -0.90994 148 136 120
0.01178 0.35075 -0.91010 150 141 125
0.01280 0.35132 -0.90975 129 121 109
0.01323 0.35148 -0.90859 86 87 88
0.03939 0.34369 -0.95349 79 78 82
0.04004 0.34303 -0.95322 93 87 81
0.00147 0.35702 -0.87234 141 124 110
0.00107 0.35658 -0.87246 131 117 109
0.00188 0.35705 -0.87204 146 131 116
0.00229 0.35663 -0.87187 145 134 116
0.01326 0.35090 -0.90884 89 88 86
0.01377 0.35037 -0.90862 57 62 79
0.03687 0.34291 -0.95468 50 59 77
0.03623 0.34221 -0.95488 53 58 75
0.03761 0.34283 -0.95503 38 48 68
0.03894 0.34281 -0.95481 53 57 76
0.03953 0.34289 -0.95422 78 76 82
0.04018 0.34222 -0.95395 93 88 81
0.12290 0.35214 -0.87678 97 92 78
0.12237 0.35156 -0.87694 96 86 71
0.12369 0.35208 -0.87693 107 101 86
0.12411 0.35212 -0.87659 116 106 91
0.12468 0.35213 -0.87645 118 110 94
0.12521 0.35270 -0.87629 120 111 100
0.12521 0.35214 -0.87626 121 111 98
0.00147 0.35662 -0.87212 138 126 109
0.00107 0.35618 -0.87225 129 120 109
0.00188 0.35620 -0.87195 142 132 111
0.00188 0.35663 -0.87197 143 133 112
0.00229 0.35621 -0.87180 144 134 112
0.01326 0.35035 -0.90890 92 89 90
0.03708 0.34201 -0.95595 50 55 74
0.03644 0.34131 -0.95616 53 61 75
0.03786 0.34189 -0.95651 40 45 71
0.03924 0.34185 -0.95648 54 58 72
0.03980 0.34195 -0.95572 78 78 81
0.12280 0.35160 -0.87661 97 87 71
0.12227 0.35103 -0.87678 98 87 69
0.12280 0.35104 -0.87658 98 86 70
0.12353 0.35157 -0.87668 104 93 78
0.12424 0.35153 -0.87673 112 100 85
0.12471 0.35156 -0.87646 117 106 89
0.12523 0.35157 -0.87625 120 109 92
0.12576 0.35215 -0.87608 121 109 97
0.12576 0.35159 -0.87605 120 109 95
0.12576 0.35102 -0.87602 119 110 97
0.00147 0.35619 -0.87212 136 128 109
0.00107 0.35575 -0.87225 130 119 106
0.00188 0.35576 -0.87195 144 131 110
0.01333 0.34968 -0.90965 94 94 91
0.01373 0.34991 -0.90812 59 67 77
0.03724 0.34116 -0.95686 49 56 71
0.03659 0.34046 -0.95707 52 57 74
0.03804 0.34102 -0.95756 40 47 66
0.03950 0.34090 -0.95799 53 58 73
0.04009 0.34098 -0.95736 77 76 80
0.04099 0.34076 -0.95850 93 89 80
0.04164 0.34147 -0.95829 94 88 73
0.04165 0.34078 -0.95826 94 88 74
0.04165 0.34008 -0.95822 94 88 77
0.12385 0.35092 -0.87708 100 89 76
0.12333 0.35035 -0.87725 98 87 71
0.12386 0.35036 -0.87705 100 87 73
0.12439 0.35037 -0.87686 99 86 76
0.12450 0.35091 -0.87705 104 94 83
0.00148 0.35570 -0.87242 138 127 108
0.01312 0.34957 -0.90704 97 97 95
0.01372 0.34940 -0.90796 58 65 80
0.01426 0.34935 -0.90812 44 54 78
0.01477 0.34882 -0.90790 41 53 79
0.03914 0.33990 -0.95992 39 45 69
0.03982 0.33989 -0.95979 52 56 75
0.04040 0.33999 -0.95908 74 74 79
0.04122 0.33984 -0.95978 91 86 79
0.04189 0.33916 -0.95951 94 89 77
0.00108 0.35524 -0.87265 130 116 102
0.00067 0.35567 -0.87282 124 111 104
0.00067 0.35523 -0.87280 125 111 100
0.00067 0.35480 -0.87278 124 113 96
0.00149 0.35525 -0.87250 138 125 108
0.00190 0.35526 -0.87235 144 132 113
0.00230 0.35570 -0.87222 145 132 111
0.00231 0.35527 -0.87220 146 132 116
0.00231 0.35484 -0.87218 146 133 118
0.01223 0.34875 -0.90892 149 141 130
0.01173 0.34820 -0.90908 148 141 125
0.01274 0.34876 -0.90873 136 129 118
0.01320 0.34887 -0.90797 98 96 92
0.01379 0.34873 -0.90868 60 65 77
0.01429 0.34875 -0.90844 43 54 78
0.01480 0.34822 -0.90823 42 52 80
0.03771 0.33929 -0.95965 48 56 72
0.03705 0.33858 -0.95985 50 58 75
0.03849 0.33917 -0.96017 38 49 69
0.03916 0.33849 -0.95990 38 45 70
0.04003 0.33899 -0.96095 51 53 70
0.04071 0.33898 -0.96082 74 74 77
0.04138 0.33829 -0.96055 87 88 77
0.04151 0.33887 -0.96134 90 86 77
0.04218 0.33818 -0.96106 92 88 73
0.00109 0.35472 -0.87313 129 117 100
0.00069 0.35428 -0.87326 125 113 93
0.00149 0.35480 -0.87258 136 125 107
0.00190 0.35481 -0.87243 143 133 114
0.00231 0.35439 -0.87226 147 135 119
0.01216 0.34838 -0.90795 149 140 128
0.01166 0.34783 -0.90811 149 141 128
0.01267 0.34838 -0.90778 138 128 117
0.01317 0.34841 -0.90749 102 98 94
0.01369 0.34839 -0.90754 62 66 76
0.01421 0.34837 -0.90749 44 52 76
0.01472 0.34785 -0.90728 42 50 78
0.03787 0.33843 -0.96057 48 56 76
0.03721 0.33772 -0.96077 53 56 74
0.03853 0.33775 -0.96029 40 47 71
0.03864 0.33832 -0.96103 39 48 72
0.03931 0.33763 -0.96075 38 45 73
0.04030 0.33801 -0.96249 49 53 71
0.04107 0.33792 -0.96284 72 76 79
-0.00011 0.35402 -0.87498 130 118 101
0.00109 0.35430 -0.87304 128 116 94
0.00069 0.35386 -0.87317 125 112 93
0.00151 0.35388 -0.87287 134 122 109
0.00149 0.35438 -0.87251 135 124 103
0.00191 0.35395 -0.87234 141 129 117
0.00190 0.35439 -0.87236 142 131 113
0.00231 0.35396 -0.87219 146 134 121
0.01212 0.34795 -0.90727 149 140 126
0.01161 0.34741 -0.90743 149 140 127
0.01260 0.34802 -0.90678 138 130 115
0.01301 0.34823 -0.90549 105 101 93
0.01364 0.34796 -0.90686 65 68 76
0.01418 0.34791 -0.90702 45 52 74
0.01469 0.34739 -0.90681 41 53 75
0.03795 0.33765 -0.96100 49 55 71
0.03729 0.33693 -0.96121 54 55 73
0.03861 0.33696 -0.96072 43 46 72
0.04050 0.33709 -0.96360 46 53 72
0.04124 0.33703 -0.96378 69 74 76
0.04192 0.33634 -0.96350 87 85 78
0.04212 0.33683 -0.96473 86 87 77
0.04280 0.33685 -0.96448 92 87 71
0.04280 0.33614 -0.96445 91 83 70
0.00110 0.35384 -0.87319 127 115 97
0.00151 0.35341 -0.87302 133 122 113
0.01210 0.34747 -0.90698 147 139 122
0.01160 0.34692 -0.90713 150 140 126
0.01304 0.34764 -0.90575 107 105 94
0.01360 0.34752 -0.90630 66 72 77
0.01414 0.34747 -0.90649 45 55 73
0.01464 0.34695 -0.90628 41 53 77
0.04056 0.33632 -0.96393 46 55 73
0.01201 0.34714 -0.90579 149 138 122
0.01151 0.34660 -0.90595 151 138 130
0.01249 0.34720 -0.90536 139 129 113
0.01296 0.34729 -0.90472 110 106 95
0.01354 0.34713 -0.90548 67 73 77
0.01409 0.34704 -0.90591 44 56 73
0.01460 0.34651 -0.90570 43 54 78
0.03795 0.33625 -0.96092 50 53 69
0.03729 0.33553 -0.96113 52 56 75
0.03876 0.33610 -0.96158 40 46 66
0.03943 0.33541 -0.96131 40 44 62
0.04216 0.33538 -0.96481 88 84 79
0.04283 0.33539 -0.96456 92 83 71
0.04283 0.33468 -0.96453 90 84 69
0.01197 0.34673 -0.90514 150 136 127
0.01147 0.34619 -0.90529 151 139 134
0.01246 0.34676 -0.90487 142 129 117
0.01294 0.34680 -0.90449 112 107 97
0.01352 0.34664 -0.90524 69 72 76
0.01407 0.34656 -0.90556 46 55 73
0.01457 0.34604 -0.90535 42 53 78
0.04035 0.33514 -0.96260 52 52 68
0.04121 0.33494 -0.96346 74 74 77
0.04189 0.33425 -0.96318 86 82 70
0.04187 0.33497 -0.96313 87 83 72
0.04254 0.33428 -0.96285 90 82 68
0.01183 0.34654 -0.90331 151 138 133
0.01134 0.34600 -0.90347 150 139 132
0.01184 0.34601 -0.90329 148 139 136
0.01235 0.34650 -0.90340 143 133 121
0.01282 0.34657 -0.90287 113 110 98
0.01350 0.34617 -0.90490 72 74 76
0.01405 0.34607 -0.90531 48 55 75
0.01455 0.34555 -0.90510 42 52 77
0.03850 0.33500 -0.95990 42 46 62
0.03916 0.33431 -0.95963 40 43 67
0.04004 0.33478 -0.96072 51 53 69
0.04090 0.33458 -0.96159 74 75 77
0.04157 0.33389 -0.96131 88 83 77
0.01220 0.34633 -0.90150 141 134 126
0.01274 0.34624 -0.90186 113 110 100
0.01344 0.34579 -0.90411 72 74 79
0.01398 0.34569 -0.90448 48 55 77
0.01448 0.34518 -0.90427 43 52 76
0.02238 0.33906 -0.93814 44 48 60
0.02297 0.33845 -0.93789 37 42 60
0.04008 0.33403 -0.96091 52 50 70
0.01164 0.34598 -0.90070 146 141 128
0.01115 0.34597 -0.90087 149 141 126
0.01116 0.34545 -0.90085 148 140 121
0.01165 0.34546 -0.90067 147 141 123
0.01216 0.34591 -0.90092 139 134 121
0.01269 0.34585 -0.90114 114 111 100
0.01336 0.34544 -0.90315 75 75 77
0.01390 0.34536 -0.90343 50 55 75
0.01440 0.34485 -0.90323 44 51 75
0.02164 0.33870 -0.93687 53 54 69
0.02105 0.33931 -0.93712 54 55 67
0.02105 0.33869 -0.93709 52 56 72
0.02105 0.33807 -0.93706 52 56 71
0.02235 0.33850 -0.93780 44 46 62
0.02294 0.33789 -0.93755 37 40 59
0.03981 0.33365 -0.95924 53 52 67
0.01209 0.34558 -0.89996 140 136 118
0.01161 0.34505 -0.90012 147 142 123
0.01264 0.34546 -0.90047 116 113 100
0.01328 0.34510 -0.90215 78 77 79
0.01380 0.34506 -0.90225 51 55 72
0.01429 0.34455 -0.90205 44 50 72
0.02160 0.33816 -0.93647 53 54 66
0.02101 0.33752 -0.93666 55 57 68
0.02226 0.33804 -0.93690 44 46 59
0.02285 0.33743 -0.93666 35 41 55
0.00043 0.34946 -0.88013 130 117 99
0.00086 0.34902 -0.87995 121 111 96
0.01202 0.34525 -0.89896 141 136 118
0.01251 0.34526 -0.89883 117 115 103
0.01316 0.34487 -0.90065 78 81 83
0.01370 0.34477 -0.90104 51 58 73
0.01419 0.34426 -0.90083 45 50 76
0.02149 0.33773 -0.93545 51 53 58
0.02091 0.33710 -0.93563 53 57 69
0.02217 0.33759 -0.93604 41 45 54
0.02275 0.33698 -0.93579 37 41 53
0.03890 0.33255 -0.95788 40 47 72
0.03825 0.33184 -0.95809 41 48 64
0.03956 0.33256 -0.95768 57 59 78
0.09551 0.34027 -0.90400 105 104 84
0.09608 0.34088 -0.90382 109 99 80
0.09609 0.34028 -0.90379 107 100 83
0.09609 0.33967 -0.90376 107 100 83
0.00004 0.34859 -0.88233 137 123 107
-0.00039 0.34812 -0.88247 139 125 109
0.00004 0.34813 -0.88231 137 123 108
0.00044 0.34884 -0.88094 131 118 102
0.00088 0.34840 -0.88076 122 112 100
0.01150 0.34482 -0.89867 150 140 122
0.01102 0.34532 -0.89887 148 141 122
0.01102 0.34481 -0.89885 150 139 123
0.01102 0.34430 -0.89882 147 136 122
0.01150 0.34431 -0.89865 147 138 122
0.01198 0.34485 -0.89838 143 133 113
0.01247 0.34485 -0.89828 121 113 99
0.01316 0.34436 -0.90057 81 79 81
0.01365 0.34438 -0.90039 53 56 74
0.01414 0.34387 -0.90019 45 50 75
0.02151 0.33708 -0.93557 48 52 60
0.02093 0.33645 -0.93576 56 55 70
0.02216 0.33698 -0.93595 41 45 54
0.02275 0.33637 -0.93571 37 39 52
0.03890 0.33185 -0.95787 41 50 67
0.03825 0.33115 -0.95807 48 52 61
0.03961 0.33181 -0.95793 61 61 76
0.09619 0.33937 -0.90530 109 105 87
0.09677 0.33877 -0.90506 108 101 86
0.00047 0.34817 -0.88203 131 119 104
0.00004 0.34770 -0.88216 136 124 105
0.00090 0.34772 -0.88185 122 115 99
0.01194 0.34444 -0.89788 143 133 116
0.01146 0.34392 -0.89803 145 136 120
0.01241 0.34448 -0.89754 123 114 100
0.01305 0.34411 -0.89923 84 80 80
0.01356 0.34406 -0.89938 53 55 72
0.02156 0.33639 -0.93591 50 51 65
0.02097 0.33576 -0.93609 55 53 65
0.02213 0.33642 -0.93560 40 43 54
0.02272 0.33582 -0.93536 35 40 56
0.02324 0.33655 -0.93466 38 42 58
0.02382 0.33719 -0.93448 43 46 66
0.02383 0.33595 -0.93442 43 46 64
0.03876 0.33134 -0.95695 52 53 63
0.03811 0.33064 -0.95715 57 57 55
0.03951 0.33124 -0.95726 65 64 70
0.01194 0.34394 -0.89779 143 133 115
0.01146 0.34342 -0.89794 146 136 113
0.01243 0.34394 -0.89767 125 117 101
0.01301 0.34369 -0.89876 86 84 84
0.01351 0.34368 -0.89871 53 58 75
0.01402 0.34363 -0.89882 44 50 76
0.01451 0.34415 -0.89867 43 49 78
0.01451 0.34364 -0.89864 43 48 74
0.01451 0.34312 -0.89862 43 50 76
0.02149 0.33590 -0.93527 50 49 58
0.02208 0.33529 -0.93502 40 41 53
0.02208 0.33591 -0.93505 39 42 54
0.02266 0.33531 -0.93481 38 42 56
0.01193 0.34347 -0.89759 142 134 112
0.01145 0.34295 -0.89774 145 135 114
0.01240 0.34350 -0.89730 125 121 103
0.01297 0.34329 -0.89820 89 88 83
0.01351 0.34316 -0.89867 56 61 72
0.01400 0.34266 -0.89847 44 52 78
0.01402 0.34311 -0.89879 44 52 74
0.01451 0.34261 -0.89858 43 50 79
0.02077 0.33555 -0.93409 54 53 68
0.02019 0.33615 -0.93434 50 50 68
0.02019 0.33554 -0.93431 50 52 75
0.02019 0.33492 -0.93427 51 54 81
0.02149 0.33530 -0.93515 49 49 57
0.02207 0.33469 -0.93490 38 41 55
0.01197 0.34284 -0.89812 142 133 115
0.01149 0.34232 -0.89828 142 135 118
0.01246 0.34284 -0.89799 127 122 107
0.01305 0.34258 -0.89910 92 91 85
0.01352 0.34264 -0.89871 58 62 74
0.02081 0.33487 -0.93440 55 55 78
0.02154 0.33457 -0.93563 48 46 63
0.02213 0.33397 -0.93539 36 38 61
0.01201 0.34224 -0.89851 141 132 115
0.01153 0.34172 -0.89867 143 136 123
0.01251 0.34219 -0.89860 130 120 105
0.01301 0.34217 -0.89858 96 91 86
0.01352 0.34213 -0.89866 59 63 73
0.01404 0.34206 -0.89884 43 53 76
0.01452 0.34207 -0.89866 42 51 75
0.01453 0.34156 -0.89864 42 50 76
0.02024 0.33422 -0.93466 49 55 74
0.01966 0.33359 -0.93485 44 51 65
0.02024 0.33360 -0.93463 49 55 68
0.02082 0.33423 -0.93445 53 56 76
0.02156 0.33393 -0.93570 45 46 69
0.02215 0.33332 -0.93546 37 39 56
0.00514 0.34435 -0.88790 144 136 120
0.00469 0.34482 -0.88809 147 135 121
0.00469 0.34434 -0.88807 146 137 120
0.00469 0.34386 -0.88804 146 134 117
0.00514 0.34483 -0.88793 145 136 121
0.00559 0.34484 -0.88776 142 134 120
0.01204 0.34165 -0.89884 141 133 120
0.01156 0.34113 -0.89899 146 135 121
0.01254 0.34161 -0.89891 130 122 110
0.01307 0.34153 -0.89917 97 94 89
0.01358 0.34148 -0.89927 60 62 73
0.01407 0.34148 -0.89911 44 50 73
0.01455 0.34098 -0.89891 43 48 75
0.02084 0.33358 -0.93459 51 55 70
0.02026 0.33295 -0.93477 49 54 70
0.02162 0.33319 -0.93624 44 46 63
0.02221 0.33258 -0.93599 37 39 59
0.00513 0.34396 -0.88749 143 131 115
0.00468 0.34347 -0.88763 147 132 114
0.00513 0.34348 -0.88747 145 131 110
0.00558 0.34349 -0.88730 141 130 107
0.00553 0.34419 -0.88629 141 129 113
0.00598 0.34373 -0.88611 138 127 106
0.01204 0.34114 -0.89883 143 134 119
