ply
format ascii 1.0
element face 0
property list uchar int vertex_indices
element vertex 1316
property float x
property float y
property float z
property uchar diffuse_red
property uchar diffuse_green
property uchar diffuse_blue
end_header
0.09953 0.45602 -1.07987 114 97 98
0.09992 0.45588 -1.07885 89 64 71
0.10070 0.45591 -1.07889 115 68 71
0.10073 0.45553 -1.07886 117 70 76
0.10146 0.45567 -1.07704 170 139 129
0.10187 0.45530 -1.07704 180 169 154
0.10177 0.45497 -1.07232 181 168 149
0.10216 0.45462 -1.07233 179 175 161
0.10213 0.45489 -1.07172 179 175 155
0.10249 0.45488 -1.07154 182 177 162
0.10284 0.45527 -1.07161 186 181 165
0.10286 0.45490 -1.07158 185 182 164
0.10289 0.45453 -1.07155 184 183 168
0.07145 0.45394 -1.07612 126 124 99
0.07108 0.45353 -1.07605 121 117 102
0.07176 0.45402 -1.07653 144 139 114
0.07215 0.45404 -1.07661 151 147 122
0.07250 0.45409 -1.07686 127 127 108
0.07293 0.45408 -1.07666 101 100 91
0.07335 0.45371 -1.07667 98 98 87
0.09878 0.45525 -1.07754 174 164 153
0.09842 0.45485 -1.07747 174 167 152
0.09917 0.45527 -1.07758 157 144 133
0.09955 0.45543 -1.07854 111 92 92
0.09994 0.45546 -1.07864 92 62 70
0.10033 0.45548 -1.07867 102 63 72
0.10145 0.45488 -1.07431 171 144 134
0.10185 0.45453 -1.07432 180 169 156
0.07279 0.45382 -1.07752 100 102 86
0.07321 0.45344 -1.07752 97 97 87
0.09880 0.45487 -1.07754 173 161 149
0.09844 0.45447 -1.07747 172 170 153
0.09919 0.45487 -1.07743 154 140 124
0.09958 0.45504 -1.07849 108 88 76
0.09997 0.45505 -1.07840 93 62 58
0.10036 0.45507 -1.07844 102 61 59
0.10075 0.45508 -1.07846 118 68 69
0.10145 0.45433 -1.07309 172 148 137
0.07263 0.45356 -1.07847 98 99 87
0.07305 0.45318 -1.07848 96 97 89
0.09883 0.45449 -1.07752 169 167 148
0.09847 0.45408 -1.07745 172 171 154
0.09922 0.45449 -1.07739 149 143 127
0.09960 0.45465 -1.07843 103 88 80
0.09999 0.45466 -1.07838 92 59 59
0.10038 0.45468 -1.07841 107 60 60
0.10077 0.45470 -1.07841 123 68 66
0.06937 0.45088 -1.06314 124 119 96
0.06975 0.45055 -1.06314 108 104 86
0.09885 0.45410 -1.07746 169 164 151
0.09849 0.45369 -1.07739 169 168 155
0.09924 0.45408 -1.07721 144 136 124
0.09963 0.45427 -1.07848 99 80 73
0.10002 0.45429 -1.07850 91 58 55
0.10041 0.45431 -1.07853 104 62 51
0.10080 0.45433 -1.07856 120 70 55
0.09888 0.45371 -1.07741 168 162 147
0.09851 0.45331 -1.07734 169 168 153
0.09926 0.45373 -1.07743 142 132 118
0.09965 0.45387 -1.07833 99 77 69
0.10004 0.45389 -1.07839 92 59 58
0.10043 0.45392 -1.07843 106 63 61
0.10082 0.45395 -1.07854 122 70 64
0.10122 0.45403 -1.07902 148 103 95
0.10705 0.45428 -1.07907 149 147 145
0.10746 0.45434 -1.07939 166 163 160
0.10844 0.45484 -1.08274 196 195 181
0.10846 0.45444 -1.08271 195 197 182
0.10881 0.45526 -1.08282 200 198 184
0.10883 0.45486 -1.08278 199 196 185
0.10886 0.45446 -1.08275 197 197 184
0.06216 0.44968 -1.06163 73 75 63
0.06249 0.45005 -1.06170 70 71 64
0.06251 0.44970 -1.06167 72 73 65
0.06254 0.44935 -1.06164 72 70 65
0.09890 0.45333 -1.07744 166 162 144
0.09929 0.45338 -1.07769 136 128 112
0.09968 0.45348 -1.07828 96 76 72
0.10009 0.45311 -1.07829 93 57 64
0.10007 0.45351 -1.07836 94 59 67
0.10046 0.45353 -1.07839 108 63 63
0.10085 0.45356 -1.07849 122 74 67
0.10125 0.45371 -1.07953 149 111 101
0.10154 0.45279 -1.07255 177 155 145
0.10191 0.45280 -1.07251 179 170 160
0.10231 0.45244 -1.07251 177 177 161
0.10229 0.45282 -1.07254 179 175 167
0.10264 0.45321 -1.07261 180 178 172
0.10266 0.45284 -1.07258 181 178 172
0.10268 0.45246 -1.07255 179 179 163
0.10660 0.45363 -1.07729 174 173 159
0.10753 0.45408 -1.08028 183 179 167
0.09854 0.45294 -1.07749 172 166 150
0.09813 0.45331 -1.07749 167 167 152
0.09815 0.45292 -1.07746 168 168 153
0.09817 0.45254 -1.07742 169 166 149
0.09892 0.45297 -1.07753 167 159 140
0.09931 0.45303 -1.07788 135 122 107
0.09970 0.45308 -1.07819 95 70 70
0.10011 0.45272 -1.07819 93 58 63
0.10048 0.45313 -1.07830 106 62 63
0.10087 0.45316 -1.07840 123 77 76
0.10128 0.45339 -1.07997 152 121 114
0.10157 0.45248 -1.07298 176 160 147
0.10194 0.45248 -1.07293 176 172 154
0.10234 0.45213 -1.07293 178 178 165
0.10663 0.45324 -1.07720 188 186 172
0.10753 0.45361 -1.07969 193 188 176
0.10794 0.45324 -1.07969 195 197 179
0.06223 0.44896 -1.06149 73 72 74
0.06260 0.44863 -1.06149 70 69 73
0.09856 0.45258 -1.07763 173 165 148
0.09820 0.45217 -1.07756 170 165 148
0.09895 0.45260 -1.07766 168 156 139
0.09934 0.45267 -1.07808 130 116 101
0.09972 0.45272 -1.07832 95 71 67
0.10014 0.45235 -1.07832 96 62 60
0.10050 0.45276 -1.07838 108 63 66
0.10089 0.45276 -1.07830 125 79 77
0.10130 0.45301 -1.08004 154 121 114
0.10160 0.45214 -1.07327 177 163 153
0.10197 0.45215 -1.07322 177 174 164
0.10237 0.45180 -1.07323 176 176 166
0.06205 0.44869 -1.06212 72 71 76
0.09859 0.45216 -1.07731 173 166 149
0.09822 0.45175 -1.07724 167 167 153
0.09897 0.45218 -1.07734 167 157 141
0.09936 0.45231 -1.07827 127 112 102
0.10091 0.45223 -1.07713 126 80 78
0.10132 0.45258 -1.07973 157 128 119
0.10163 0.45181 -1.07355 176 166 154
0.10200 0.45182 -1.07349 177 174 165
0.10240 0.45146 -1.07350 179 175 162
0.11392 0.45279 -1.07715 214 216 200
0.11356 0.45238 -1.07708 217 219 199
0.11430 0.45281 -1.07724 209 210 195
0.11471 0.45245 -1.07724 205 205 191
0.06102 0.44813 -1.06078 135 137 122
0.06064 0.44846 -1.06077 143 140 128
0.06066 0.44811 -1.06074 144 142 132
0.06069 0.44776 -1.06071 143 141 134
0.06202 0.44836 -1.06229 73 72 72
0.06237 0.44838 -1.06233 73 66 66
0.06271 0.44875 -1.06239 72 71 72
0.06273 0.44840 -1.06236 74 65 65
0.06275 0.44804 -1.06233 71 64 62
0.08386 0.45101 -1.07618 105 100 92
0.08383 0.45139 -1.07621 104 101 87
0.08422 0.45142 -1.07625 102 102 90
0.10093 0.45185 -1.07712 127 81 79
0.10165 0.45140 -1.07324 180 165 151
0.10203 0.45145 -1.07354 178 172 159
0.10242 0.45110 -1.07354 181 175 160
0.11391 0.45236 -1.07681 214 214 197
0.11355 0.45196 -1.07674 215 218 198
0.11431 0.45241 -1.07700 208 208 194
0.11471 0.45205 -1.07700 204 205 190
0.06104 0.44777 -1.06073 135 134 125
0.06119 0.44787 -1.06145 117 118 108
0.06152 0.44790 -1.06156 104 105 102
0.06162 0.44801 -1.06244 79 79 76
0.06190 0.44805 -1.06272 72 72 69
0.08320 0.45009 -1.07203 127 125 111
0.08282 0.45007 -1.07200 150 145 130
0.08284 0.44970 -1.07197 153 148 124
0.08389 0.45061 -1.07603 109 111 94
0.10205 0.45105 -1.07330 179 172 159
0.10244 0.45070 -1.07331 176 177 159
0.06111 0.44741 -1.06056 136 131 127
0.06118 0.44752 -1.06151 118 115 106
0.06146 0.44757 -1.06179 103 102 98
0.06155 0.44768 -1.06272 82 80 79
0.06181 0.44774 -1.06308 73 73 70
0.06219 0.44740 -1.06308 72 72 71
0.10098 0.45105 -1.07682 131 87 87
0.10061 0.45065 -1.07675 112 68 67
0.10170 0.45071 -1.07361 179 167 153
0.10210 0.45035 -1.07362 176 174 158
0.11400 0.45166 -1.07718 210 212 192
0.11441 0.45130 -1.07718 207 204 189
0.06103 0.44696 -1.05969 141 140 138
0.06070 0.44659 -1.05962 142 139 133
0.06105 0.44661 -1.05966 144 139 137
0.06121 0.44717 -1.06146 117 116 107
0.06133 0.44727 -1.06227 104 103 97
0.06131 0.44742 -1.06357 81 81 80
0.10100 0.45065 -1.07665 135 91 92
0.11404 0.45130 -1.07732 208 209 190
0.11445 0.45094 -1.07732 204 204 189
0.06139 0.44663 -1.05972 138 132 132
0.06107 0.44626 -1.05965 146 142 134
0.06134 0.44678 -1.06106 118 115 111
0.06142 0.44689 -1.06200 104 104 101
0.06142 0.44703 -1.06323 82 82 81
0.06167 0.44709 -1.06366 73 74 70
0.06205 0.44675 -1.06367 74 72 60
0.08098 0.44825 -1.06646 130 125 106
0.08132 0.44863 -1.06653 135 133 108
0.08137 0.44791 -1.06646 143 142 111
0.08199 0.44837 -1.06715 138 133 113
0.08161 0.44871 -1.06715 140 135 106
0.08163 0.44835 -1.06712 142 137 114
0.08165 0.44799 -1.06709 138 139 111
0.08197 0.44873 -1.06718 136 130 105
0.08268 0.44845 -1.06758 138 131 109
0.08307 0.44810 -1.06759 155 152 126
0.09869 0.45047 -1.07923 167 164 150
0.09828 0.45084 -1.07923 170 168 149
0.09830 0.45044 -1.07919 168 163 150
0.09832 0.45005 -1.07916 168 166 152
0.09909 0.45049 -1.07927 154 146 132
0.09950 0.45012 -1.07927 106 91 80
0.10104 0.45046 -1.07827 132 90 89
0.11368 0.45089 -1.07724 204 207 189
0.08196 0.44805 -1.06754 137 136 115
0.09872 0.45003 -1.07877 165 164 147
0.09835 0.44962 -1.07870 167 164 152
0.09911 0.45005 -1.07880 151 146 128
0.10106 0.45003 -1.07791 138 95 90
0.11301 0.45055 -1.07786 179 180 167
0.11260 0.45092 -1.07786 207 207 191
0.11262 0.45053 -1.07782 197 197 181
0.11264 0.45015 -1.07779 183 184 167
0.11340 0.45059 -1.07800 183 183 169
0.11373 0.45054 -1.07747 191 191 177
0.09875 0.44960 -1.07840 163 164 146
0.09838 0.44919 -1.07833 168 165 152
0.09914 0.44961 -1.07833 148 142 126
0.10108 0.44961 -1.07757 139 100 85
0.11301 0.45015 -1.07766 154 154 141
0.11340 0.45017 -1.07770 154 151 139
0.09877 0.44922 -1.07840 165 161 146
0.09840 0.44881 -1.07833 166 166 149
0.09916 0.44920 -1.07811 144 132 121
0.09955 0.44921 -1.07801 103 82 81
0.09994 0.44924 -1.07813 92 62 68
0.10033 0.44926 -1.07817 100 62 67
0.10072 0.44928 -1.07822 116 72 74
0.10110 0.44914 -1.07673 141 104 104
0.11296 0.44967 -1.07676 136 134 122
0.09880 0.44882 -1.07835 165 160 143
0.09843 0.44841 -1.07828 166 166 147
0.09919 0.44879 -1.07785 143 129 118
0.09958 0.44882 -1.07798 101 76 78
0.09999 0.44845 -1.07798 96 62 62
0.09997 0.44884 -1.07803 94 57 65
0.10036 0.44886 -1.07807 105 62 67
0.10075 0.44889 -1.07818 119 74 78
0.10111 0.44868 -1.07592 144 108 106
0.11332 0.44927 -1.07635 124 123 108
0.11384 0.44943 -1.07776 153 151 136
0.11425 0.44907 -1.07776 187 189 171
0.09882 0.44842 -1.07812 165 159 143
0.09845 0.44801 -1.07805 165 164 151
0.09921 0.44837 -1.07748 141 128 112
0.09960 0.44843 -1.07796 99 74 65
0.10038 0.44848 -1.07803 105 61 68
0.10077 0.44851 -1.07823 123 72 79
0.10115 0.44838 -1.07669 148 110 107
0.10145 0.44782 -1.07100 171 156 144
0.10182 0.44784 -1.07105 170 170 154
0.10222 0.44750 -1.07105 171 172 157
0.11288 0.44877 -1.07536 126 122 111
0.11252 0.44837 -1.07529 154 156 143
0.11290 0.44839 -1.07532 121 122 112
0.11328 0.44841 -1.07536 122 122 110
0.11330 0.44884 -1.07586 120 119 104
0.11371 0.44848 -1.07586 151 152 135
0.09885 0.44799 -1.07772 163 158 141
0.09848 0.44758 -1.07765 165 165 148
0.09924 0.44794 -1.07705 135 123 103
0.09963 0.44802 -1.07767 101 77 66
0.10004 0.44766 -1.07768 95 59 58
0.10001 0.44804 -1.07771 94 62 58
0.10040 0.44806 -1.07775 106 63 63
0.10079 0.44810 -1.07792 122 75 78
0.10117 0.44803 -1.07708 150 118 113
0.10148 0.44745 -1.07095 172 159 147
0.10185 0.44747 -1.07098 170 170 155
0.10224 0.44712 -1.07099 173 172 159
0.09887 0.44758 -1.07739 163 158 138
0.09926 0.44754 -1.07686 132 117 100
0.09965 0.44762 -1.07744 97 71 62
0.10006 0.44725 -1.07744 96 60 64
0.10043 0.44766 -1.07749 109 63 63
0.10082 0.44769 -1.07769 123 79 74
0.10150 0.44709 -1.07093 172 160 147
0.10187 0.44711 -1.07097 174 170 157
0.10226 0.44676 -1.07097 173 171 154
0.11494 0.44823 -1.07655 150 153 151
0.11534 0.44787 -1.07656 111 117 117
0.11556 0.44846 -1.07874 150 152 151
0.09851 0.44715 -1.07712 166 165 147
0.09810 0.44751 -1.07712 164 165 150
0.09812 0.44713 -1.07708 166 168 153
0.09815 0.44674 -1.07705 166 167 152
0.09890 0.44717 -1.07716 162 156 135
0.09929 0.44714 -1.07662 129 113 97
0.09970 0.44678 -1.07662 95 68 64
0.09967 0.44722 -1.07729 95 69 65
0.10009 0.44685 -1.07730 97 63 61
0.10045 0.44726 -1.07739 107 63 63
0.10047 0.44688 -1.07736 108 66 65
0.10084 0.44728 -1.07742 125 81 80
0.10125 0.44692 -1.07742 160 128 120
0.10123 0.44731 -1.07754 158 128 122
0.10152 0.44672 -1.07095 173 161 150
0.10189 0.44674 -1.07097 171 169 154
0.10229 0.44639 -1.07097 170 171 155
0.09854 0.44671 -1.07644 164 164 148
0.09818 0.44630 -1.07637 167 166 152
0.09895 0.44634 -1.07644 157 152 131
0.09893 0.44673 -1.07648 159 154 139
0.09931 0.44675 -1.07652 122 107 99
0.09972 0.44638 -1.07652 92 70 69
0.10154 0.44630 -1.07038 174 160 146
0.10192 0.44638 -1.07098 170 167 151
0.10231 0.44603 -1.07099 168 170 156
0.09934 0.44636 -1.07650 120 106 94
0.10195 0.44604 -1.07134 169 166 153
0.10234 0.44569 -1.07134 170 170 152
0.07980 0.44419 -1.06586 170 170 150
0.08018 0.44385 -1.06587 174 172 150
0.10197 0.44569 -1.07150 170 169 151
0.10237 0.44534 -1.07151 169 172 152
0.10166 0.44497 -1.07195 170 167 148
0.10205 0.44462 -1.07196 166 168 150
0.10020 0.44486 -1.07636 99 56 58
0.09982 0.44484 -1.07632 93 59 64
0.10018 0.44525 -1.07639 99 59 58
0.10023 0.44448 -1.07632 100 58 55
0.10059 0.44489 -1.07647 115 69 67
0.10097 0.44486 -1.07591 136 99 92
0.10131 0.44463 -1.07258 166 151 137
0.10168 0.44461 -1.07213 168 167 148
0.10208 0.44426 -1.07214 168 168 155
0.09984 0.44441 -1.07569 94 61 60
0.10061 0.44446 -1.07588 113 66 60
0.10063 0.44408 -1.07585 113 68 65
0.10099 0.44443 -1.07520 139 101 93
0.10133 0.44423 -1.07224 167 151 138
0.10170 0.44423 -1.07193 169 165 152
0.10210 0.44388 -1.07193 170 167 153
0.09948 0.44398 -1.07520 100 79 74
0.09986 0.44402 -1.07544 92 59 61
0.10025 0.44404 -1.07548 99 59 57
0.10101 0.44403 -1.07491 143 106 100
0.09912 0.44364 -1.07610 139 126 111
0.09871 0.44401 -1.07609 162 159 140
0.09873 0.44362 -1.07606 162 157 142
0.09950 0.44357 -1.07467 100 75 70
0.09989 0.44360 -1.07498 90 55 63
0.10027 0.44362 -1.07501 100 57 63
0.10065 0.44365 -1.07509 116 70 69
0.10103 0.44362 -1.07437 145 109 101
0.09914 0.44326 -1.07608 134 119 108
0.09953 0.44317 -1.07438 100 73 70
0.09993 0.44281 -1.07438 94 56 54
0.09991 0.44321 -1.07469 92 57 58
0.10029 0.44323 -1.07472 102 58 57
0.10068 0.44325 -1.07481 120 73 71
0.10104 0.44317 -1.07321 148 114 106
0.10144 0.44281 -1.07321 166 156 141
0.09878 0.44283 -1.07564 159 156 139
0.09917 0.44285 -1.07560 128 115 103
0.09955 0.44278 -1.07427 98 67 63
0.09996 0.44243 -1.07427 94 59 56
0.10032 0.44283 -1.07444 101 58 56
0.10070 0.44285 -1.07447 119 73 69
0.10106 0.44276 -1.07276 148 118 108
0.09842 0.44240 -1.07515 161 160 143
0.09802 0.44276 -1.07515 162 161 142
0.09804 0.44238 -1.07511 161 162 144
0.09806 0.44200 -1.07508 161 159 142
0.09845 0.44202 -1.07512 162 159 142
0.09881 0.44242 -1.07519 161 154 136
0.09919 0.44243 -1.07496 125 112 98
0.09958 0.44241 -1.07435 94 67 63
0.09998 0.44205 -1.07435 92 57 56
0.10034 0.44245 -1.07441 102 61 56
0.10072 0.44247 -1.07438 119 78 69
0.10108 0.44239 -1.07273 150 125 110
0.09883 0.44201 -1.07463 159 153 136
0.09922 0.44201 -1.07422 120 106 95
0.09960 0.44204 -1.07444 92 64 63
0.10001 0.44168 -1.07444 93 58 59
0.10036 0.44208 -1.07446 103 60 56
0.10074 0.44209 -1.07441 121 78 71
0.10109 0.44192 -1.07110 154 130 113
0.09848 0.44158 -1.07396 159 158 141
0.09810 0.44156 -1.07393 158 159 145
0.09812 0.44118 -1.07389 157 159 145
0.09886 0.44160 -1.07401 154 151 132
0.09924 0.44161 -1.07392 116 104 90
0.09962 0.44166 -1.07448 91 66 63
0.10003 0.44130 -1.07448 93 59 60
0.10039 0.44170 -1.07451 104 60 61
0.10077 0.44172 -1.07447 122 81 77
0.10111 0.44154 -1.07088 156 133 120
0.10148 0.44155 -1.07074 164 159 142
0.10187 0.44120 -1.07074 164 165 145
0.09851 0.44118 -1.07359 159 158 144
0.09815 0.44078 -1.07352 158 160 142
0.09891 0.44082 -1.07359 150 146 129
0.09889 0.44120 -1.07366 151 149 135
0.09927 0.44122 -1.07370 109 99 88
0.09965 0.44129 -1.07459 87 63 60
0.10005 0.44093 -1.07459 92 59 60
0.10041 0.44133 -1.07457 104 64 69
0.10079 0.44133 -1.07437 121 84 86
0.10150 0.44118 -1.07059 165 159 141
0.07248 0.43935 -1.07027 132 126 105
0.07210 0.43933 -1.07024 125 122 102
0.07212 0.43895 -1.07020 125 122 104
0.07245 0.43972 -1.07030 129 128 107
0.07250 0.43897 -1.07024 131 125 106
0.07283 0.43975 -1.07034 130 129 109
0.09929 0.44086 -1.07390 107 94 83
0.09967 0.44091 -1.07461 86 60 61
0.10008 0.44055 -1.07461 93 59 56
0.10044 0.44095 -1.07456 102 64 65
0.10081 0.44095 -1.07423 122 87 84
0.10115 0.44079 -1.07057 158 138 124
0.10152 0.44080 -1.07040 164 159 139
0.10192 0.44045 -1.07041 160 161 141
0.10046 0.44059 -1.07508 104 64 61
0.10049 0.44021 -1.07505 106 66 63
0.10085 0.44062 -1.07519 122 89 83
0.10117 0.44041 -1.07021 160 144 129
0.10154 0.44042 -1.07012 161 160 141
0.10193 0.44007 -1.07012 159 162 143
0.07352 0.43860 -1.06902 136 137 114
0.10119 0.44003 -1.07002 158 146 128
0.10156 0.44004 -1.06981 158 160 140
0.10195 0.43969 -1.06981 161 163 148
0.07357 0.43822 -1.06885 138 138 113
0.07395 0.43824 -1.06886 151 155 128
0.10089 0.43982 -1.07421 130 97 92
0.10053 0.43941 -1.07415 111 66 66
0.10091 0.43944 -1.07432 132 100 95
0.10055 0.43904 -1.07426 111 68 67
0.10093 0.43904 -1.07369 136 105 101
0.10057 0.43864 -1.07362 110 69 63
0.09869 0.43846 -1.07112 154 154 137
0.09831 0.43844 -1.07108 157 158 142
0.09834 0.43807 -1.07105 155 156 144
0.09906 0.43851 -1.07205 132 118 107
0.10094 0.43863 -1.07259 138 109 97
0.10059 0.43823 -1.07252 111 70 67
0.10134 0.43827 -1.07260 162 153 135
0.09871 0.43809 -1.07107 152 152 139
0.09908 0.43813 -1.07184 126 116 104
0.10096 0.43823 -1.07189 142 113 102
0.09836 0.43770 -1.07099 155 158 140
0.09796 0.43805 -1.07098 160 157 139
0.09799 0.43768 -1.07095 157 158 137
0.09801 0.43731 -1.07092 156 157 139
0.09873 0.43772 -1.07106 149 150 131
0.09910 0.43778 -1.07277 122 112 98
0.10098 0.43784 -1.07128 143 118 112
0.09838 0.43733 -1.07110 155 156 137
0.09803 0.43694 -1.07103 156 156 141
0.09876 0.43735 -1.07120 149 149 129
0.09913 0.43741 -1.07278 119 108 92
0.10099 0.43746 -1.07065 146 121 116
0.09840 0.43697 -1.07146 153 155 135
0.09805 0.43657 -1.07140 154 155 139
0.09878 0.43699 -1.07164 149 146 132
0.09915 0.43703 -1.07250 115 101 94
0.10069 0.43718 -1.07580 113 75 74
0.10101 0.43707 -1.06982 149 127 119
0.10137 0.43708 -1.06947 158 154 136
0.10177 0.43673 -1.06947 157 158 136
0.07367 0.43521 -1.06710 131 128 105
0.07328 0.43556 -1.06709 129 126 109
0.07331 0.43519 -1.06706 129 126 108
0.07333 0.43482 -1.06703 130 127 102
0.07402 0.43560 -1.06716 137 138 116
0.07404 0.43523 -1.06713 139 137 115
0.09842 0.43660 -1.07171 152 154 134
0.09807 0.43620 -1.07164 156 156 140
0.09880 0.43662 -1.07194 148 145 130
0.10071 0.43679 -1.07563 115 77 75
0.10103 0.43670 -1.06982 151 132 122
0.09845 0.43623 -1.07183 153 153 133
0.09882 0.43625 -1.07199 148 141 124
0.09922 0.43589 -1.07199 103 86 77
0.10035 0.43638 -1.07551 101 57 53
0.10073 0.43640 -1.07528 119 80 76
0.10106 0.43634 -1.07013 152 133 123
0.10143 0.43635 -1.06988 157 152 134
0.10182 0.43601 -1.06988 156 154 137
0.09809 0.43583 -1.07180 155 155 135
0.09769 0.43619 -1.07180 157 156 139
0.09772 0.43581 -1.07177 156 156 137
0.09774 0.43544 -1.07173 154 152 136
0.09812 0.43546 -1.07177 152 152 133
0.09847 0.43585 -1.07184 153 151 132
0.09885 0.43587 -1.07193 146 139 123
0.09960 0.43595 -1.07485 85 56 53
0.10001 0.43559 -1.07486 87 52 48
0.10037 0.43600 -1.07526 101 57 53
0.10075 0.43601 -1.07499 123 83 78
0.10145 0.43599 -1.07005 157 151 134
0.10185 0.43564 -1.07005 153 157 135
0.09849 0.43548 -1.07185 151 151 132
0.09814 0.43508 -1.07179 151 154 134
0.09887 0.43550 -1.07215 143 136 120
0.09962 0.43557 -1.07465 84 54 50
0.10003 0.43520 -1.07465 90 51 49
0.10039 0.43561 -1.07492 100 56 54
0.10077 0.43563 -1.07462 126 87 83
0.10111 0.43561 -1.07075 156 138 122
0.10148 0.43562 -1.07053 156 153 132
0.10188 0.43527 -1.07054 155 156 134
0.10041 0.43522 -1.07445 102 56 57
0.10080 0.43524 -1.07442 127 92 88
0.10113 0.43523 -1.07056 156 141 126
0.10150 0.43525 -1.07037 156 152 134
0.10190 0.43490 -1.07038 156 155 140
0.10044 0.43484 -1.07476 102 58 57
0.10116 0.43486 -1.07060 157 143 130
0.10153 0.43488 -1.07048 158 152 138
0.10192 0.43453 -1.07049 154 155 140
0.09856 0.43435 -1.07148 150 151 129
0.09821 0.43396 -1.07142 150 152 136
0.10046 0.43446 -1.07511 103 61 53
0.10087 0.43410 -1.07511 133 105 93
0.10118 0.43449 -1.07030 156 145 127
0.10155 0.43451 -1.07023 156 154 137
0.10194 0.43416 -1.07023 153 155 138
0.11776 0.43541 -1.08263 166 168 145
0.11817 0.43543 -1.08272 167 170 146
0.11909 0.43549 -1.08368 170 173 154
0.11947 0.43591 -1.08376 173 176 159
0.11962 0.43552 -1.08466 171 174 153
0.12000 0.43594 -1.08473 174 177 159
0.12014 0.43555 -1.08555 173 174 154
0.12053 0.43598 -1.08562 174 177 159
0.12060 0.43557 -1.08593 172 173 152
0.12098 0.43600 -1.08600 174 177 158
0.12105 0.43560 -1.08628 171 174 153
0.12144 0.43603 -1.08635 173 176 156
0.12146 0.43562 -1.08629 172 175 156
0.12184 0.43605 -1.08637 174 175 158
0.12187 0.43564 -1.08633 172 175 158
0.12218 0.43566 -1.08570 173 173 155
0.12215 0.43606 -1.08573 175 175 160
0.12256 0.43609 -1.08577 175 174 159
0.12231 0.43566 -1.08395 173 170 153
0.12269 0.43609 -1.08402 175 176 161
0.12245 0.43567 -1.08226 174 173 158
0.12283 0.43608 -1.08233 174 176 160
0.12285 0.43569 -1.08230 172 173 159
0.07365 0.43262 -1.06784 130 130 102
0.07330 0.43223 -1.06777 128 126 96
0.07434 0.43266 -1.06622 138 138 114
0.07495 0.43270 -1.06496 153 152 133
0.07532 0.43272 -1.06499 158 158 141
0.07534 0.43236 -1.06496 158 159 138
0.09859 0.43398 -1.07137 149 150 130
0.09824 0.43358 -1.07130 149 151 134
0.10120 0.43412 -1.07003 155 146 128
0.10157 0.43414 -1.06996 153 154 137
0.10196 0.43379 -1.06996 153 155 136
0.11825 0.43504 -1.08314 160 162 141
0.11869 0.43506 -1.08348 161 164 143
0.11917 0.43509 -1.08405 163 166 143
0.11964 0.43511 -1.08462 166 168 144
0.12017 0.43514 -1.08552 169 169 146
0.12062 0.43516 -1.08589 168 167 145
0.12108 0.43519 -1.08624 166 168 147
0.12148 0.43521 -1.08626 166 169 148
0.12185 0.43523 -1.08598 167 170 150
0.12221 0.43525 -1.08566 169 166 149
0.12228 0.43526 -1.08349 169 166 149
0.12243 0.43527 -1.08194 170 168 153
0.12260 0.43528 -1.08049 168 169 155
0.12297 0.43569 -1.08057 172 173 158
0.12286 0.43529 -1.07970 168 169 154
0.12322 0.43570 -1.07977 172 173 155
0.12319 0.43531 -1.07938 169 170 152
0.12356 0.43572 -1.07945 173 172 157
0.12378 0.43534 -1.08062 169 169 153
0.12415 0.43576 -1.08069 171 170 158
0.12519 0.43541 -1.08429 169 166 153
0.12556 0.43584 -1.08436 174 170 153
0.12592 0.43545 -1.08625 171 167 150
0.12631 0.43588 -1.08633 172 173 153
0.12665 0.43549 -1.08805 172 169 153
0.12703 0.43592 -1.08813 172 174 156
0.12706 0.43551 -1.08809 172 170 155
0.12773 0.43555 -1.08955 171 169 154
0.12771 0.43596 -1.08959 172 174 158
0.12812 0.43599 -1.08963 173 173 156
0.12827 0.43558 -1.09024 172 168 155
0.12866 0.43602 -1.09031 175 171 155
0.12869 0.43560 -1.09028 174 169 155
0.07376 0.43226 -1.06733 128 130 102
0.07342 0.43187 -1.06726 127 128 100
0.07436 0.43230 -1.06619 135 139 113
0.09862 0.43361 -1.07078 148 146 128
0.09827 0.43322 -1.07071 151 150 134
0.10051 0.43370 -1.07427 104 63 62
0.10015 0.43330 -1.07420 91 50 49
0.10122 0.43375 -1.06995 154 147 129
0.10162 0.43340 -1.06995 151 152 132
0.10159 0.43377 -1.06983 152 154 134
0.10198 0.43343 -1.06983 153 155 132
0.11836 0.43464 -1.08376 146 147 126
0.11877 0.43466 -1.08380 149 149 130
0.11921 0.43468 -1.08417 151 153 130
0.11970 0.43471 -1.08478 154 156 131
0.12019 0.43473 -1.08550 156 159 133
0.12066 0.43476 -1.08590 156 157 135
0.12111 0.43478 -1.08626 155 156 135
0.12152 0.43480 -1.08632 155 158 135
0.12190 0.43482 -1.08610 156 158 137
0.12225 0.43484 -1.08579 159 156 139
0.12238 0.43486 -1.08400 161 156 139
0.12251 0.43487 -1.08227 161 158 142
0.12268 0.43489 -1.08081 161 160 146
0.12291 0.43490 -1.07986 162 160 147
0.12320 0.43492 -1.07928 164 160 145
0.12380 0.43495 -1.08058 163 162 142
0.12525 0.43501 -1.08449 162 162 142
0.12595 0.43504 -1.08622 165 163 145
0.12724 0.43510 -1.08892 168 164 151
0.12776 0.43513 -1.08951 168 164 151
0.12820 0.43515 -1.08970 169 163 149
0.12864 0.43518 -1.08984 170 165 150
0.12903 0.43562 -1.08991 172 170 157
0.12899 0.43520 -1.08949 168 166 153
0.12938 0.43564 -1.08957 171 170 155
0.12929 0.43522 -1.08896 166 167 152
0.12968 0.43565 -1.08904 174 169 154
0.12962 0.43524 -1.08857 170 167 151
0.13001 0.43567 -1.08864 173 170 155
0.12991 0.43525 -1.08796 170 169 151
0.13030 0.43569 -1.08803 173 171 155
0.13032 0.43528 -1.08800 171 170 153
0.13070 0.43531 -1.08591 171 170 154
0.13027 0.43569 -1.08590 172 171 155
0.13030 0.43528 -1.08587 171 170 154
0.13068 0.43571 -1.08594 174 171 155
0.13108 0.43573 -1.08598 174 171 153
0.13111 0.43533 -1.08595 172 171 154
0.07385 0.43190 -1.06697 128 131 104
0.07350 0.43151 -1.06690 127 131 100
0.07439 0.43193 -1.06612 137 140 114
0.07502 0.43198 -1.06480 153 156 130
0.07540 0.43163 -1.06480 156 160 135
0.09864 0.43324 -1.07058 149 143 127
0.09829 0.43284 -1.07052 153 150 132
0.09901 0.43326 -1.07074 115 101 88
0.10053 0.43332 -1.07383 105 66 64
0.10124 0.43338 -1.06990 155 148 129
0.10164 0.43304 -1.06991 152 151 132
0.11841 0.43424 -1.08393 132 130 112
0.11931 0.43428 -1.08466 136 135 118
0.11978 0.43430 -1.08516 138 140 119
0.12025 0.43433 -1.08566 139 142 120
0.12073 0.43435 -1.08620 139 141 121
0.12117 0.43437 -1.08645 138 140 120
0.12160 0.43439 -1.08666 141 142 121
0.12199 0.43442 -1.08653 141 143 122
0.12243 0.43403 -1.08654 129 128 103
0.12236 0.43444 -1.08627 144 142 121
0.12279 0.43405 -1.08627 129 126 98
0.12257 0.43446 -1.08500 145 141 118
0.12300 0.43407 -1.08501 132 127 97
0.12266 0.43448 -1.08301 147 141 119
0.12308 0.43410 -1.08301 135 127 104
0.12286 0.43449 -1.08179 148 143 124
0.12305 0.43451 -1.08055 151 145 129
0.12337 0.43453 -1.08014 151 147 129
0.12396 0.43456 -1.08136 151 150 126
0.12466 0.43458 -1.08317 150 150 124
0.12536 0.43461 -1.08497 149 150 127
0.12604 0.43464 -1.08656 152 153 135
0.12669 0.43466 -1.08795 155 153 137
0.12724 0.43469 -1.08871 157 154 139
0.12773 0.43471 -1.08919 158 155 140
0.12820 0.43474 -1.08950 160 156 139
0.12857 0.43476 -1.08929 160 156 139
0.12891 0.43478 -1.08892 159 159 143
0.12924 0.43480 -1.08854 159 161 147
0.12960 0.43482 -1.08828 161 161 145
0.12989 0.43484 -1.08767 164 163 146
0.13013 0.43486 -1.08688 166 164 147
0.13038 0.43488 -1.08615 167 164 147
0.13069 0.43490 -1.08571 167 164 146
0.13090 0.43492 -1.08480 169 167 144
0.13128 0.43534 -1.08487 171 171 153
0.13120 0.43494 -1.08436 169 167 144
0.13158 0.43536 -1.08443 172 169 152
0.13169 0.43496 -1.08476 168 166 147
0.13207 0.43538 -1.08484 174 169 153
0.13198 0.43498 -1.08428 170 167 155
0.13236 0.43540 -1.08436 172 169 153
0.13229 0.43500 -1.08392 170 166 154
0.13267 0.43542 -1.08399 172 169 152
0.13269 0.43502 -1.08396 171 166 151
0.13502 0.43514 -1.08549 173 168 154
0.13459 0.43552 -1.08548 173 167 156
0.13461 0.43512 -1.08545 173 166 153
0.13499 0.43554 -1.08552 174 168 158
0.13540 0.43556 -1.08556 173 168 158
0.13542 0.43516 -1.08552 173 169 158
0.09866 0.43287 -1.07038 149 144 124
0.09904 0.43288 -1.07060 111 98 84
0.10055 0.43295 -1.07287 104 68 66
0.10127 0.43301 -1.06991 155 149 129
0.10166 0.43267 -1.06991 152 151 134
0.11819 0.43381 -1.08511 121 117 101
0.11862 0.43342 -1.08511 119 114 93
0.11846 0.43383 -1.08406 121 116 103
0.11889 0.43345 -1.08406 120 112 95
0.11888 0.43385 -1.08421 123 116 105
0.11934 0.43387 -1.08469 126 120 107
0.12031 0.43392 -1.08588 127 125 105
0.12077 0.43394 -1.08628 126 125 107
0.12120 0.43396 -1.08648 124 124 105
0.12163 0.43398 -1.08664 127 126 102
0.12202 0.43401 -1.08651 129 128 104
0.12246 0.43362 -1.08651 120 117 96
0.12361 0.43414 -1.08140 136 132 113
0.12412 0.43416 -1.08214 135 134 114
0.12480 0.43418 -1.08382 134 133 113
0.12546 0.43421 -1.08537 134 133 116
0.12607 0.43423 -1.08656 136 135 119
0.12670 0.43425 -1.08780 139 137 120
0.12723 0.43428 -1.08851 142 137 122
0.12767 0.43430 -1.08868 143 137 122
0.12810 0.43432 -1.08879 146 140 124
0.12850 0.43434 -1.08872 146 141 124
0.12921 0.43439 -1.08822 146 148 133
0.12957 0.43441 -1.08798 148 148 133
0.12989 0.43443 -1.08753 152 151 135
0.13017 0.43445 -1.08689 154 152 136
0.13044 0.43447 -1.08625 156 151 138
0.13075 0.43449 -1.08581 158 154 138
0.13099 0.43452 -1.08506 160 156 134
0.13132 0.43454 -1.08476 161 156 132
0.13176 0.43456 -1.08497 163 158 140
0.13202 0.43458 -1.08430 163 160 147
0.13265 0.43462 -1.08359 165 160 146
0.13302 0.43504 -1.08367 171 169 147
0.13294 0.43464 -1.08317 166 163 144
0.13332 0.43506 -1.08325 171 169 147
0.13318 0.43466 -1.08248 168 163 145
0.13355 0.43508 -1.08255 173 167 152
0.13371 0.43468 -1.08313 169 162 148
0.13441 0.43471 -1.08445 169 163 146
0.13519 0.43474 -1.08609 170 165 148
0.13717 0.43480 -1.09099 172 164 156
0.13756 0.43524 -1.09107 175 168 155
0.13794 0.43483 -1.09249 172 164 153
0.13834 0.43527 -1.09256 175 168 151
0.13842 0.43485 -1.09275 172 165 150
0.13882 0.43530 -1.09283 175 166 151
0.13879 0.43488 -1.09255 172 164 151
0.13918 0.43532 -1.09263 175 166 153
0.13918 0.43490 -1.09248 173 166 154
0.13958 0.43534 -1.09256 176 168 157
0.13938 0.43492 -1.09162 172 167 155
0.13977 0.43536 -1.09170 173 169 157
0.13980 0.43494 -1.09166 171 168 153
0.14054 0.43501 -1.08831 173 167 154
0.14011 0.43540 -1.08830 175 167 158
0.14013 0.43499 -1.08827 172 167 152
0.14052 0.43542 -1.08834 175 168 158
0.14093 0.43544 -1.08838 174 168 155
0.14109 0.43504 -1.08887 172 166 151
0.14148 0.43547 -1.08895 173 168 154
0.14151 0.43506 -1.08891 172 167 151
0.09832 0.43248 -1.07000 152 150 131
0.09792 0.43283 -1.07000 153 150 135
0.09795 0.43246 -1.06997 152 150 134
0.09797 0.43209 -1.06994 149 152 129
0.09869 0.43250 -1.07004 145 143 122
0.09906 0.43251 -1.07045 107 93 82
0.09943 0.43252 -1.07184 84 56 56
0.09983 0.43216 -1.07184 85 47 46
0.10019 0.43256 -1.07211 91 50 51
0.10057 0.43258 -1.07222 103 68 69
0.10092 0.43262 -1.07031 144 126 117
0.10129 0.43264 -1.06999 154 149 132
0.10169 0.43229 -1.06999 151 152 136
0.12079 0.43353 -1.08621 121 115 98
0.12123 0.43314 -1.08621 121 114 94
0.12122 0.43355 -1.08639 120 116 98
0.12166 0.43316 -1.08639 121 115 96
0.12165 0.43357 -1.08658 120 117 96
0.12209 0.43319 -1.08659 120 114 95
0.12204 0.43360 -1.08647 121 118 97
0.12248 0.43321 -1.08648 119 113 93
0.12413 0.43377 -1.08200 121 117 104
0.12376 0.43335 -1.08193 117 111 92
0.12548 0.43380 -1.08530 123 118 107
0.12609 0.43382 -1.08647 123 118 103
0.12671 0.43384 -1.08767 125 119 102
0.12723 0.43386 -1.08832 126 119 105
0.12808 0.43391 -1.08849 131 124 109
0.12848 0.43393 -1.08848 132 125 109
0.12883 0.43395 -1.08817 131 128 113
0.12915 0.43398 -1.08774 132 129 116
0.12948 0.43400 -1.08735 135 132 118
0.12986 0.43402 -1.08724 138 134 117
0.13043 0.43407 -1.08604 143 136 126
0.13076 0.43409 -1.08572 144 140 126
0.13104 0.43411 -1.08512 146 144 126
0.13136 0.43413 -1.08479 145 143 126
0.13192 0.43416 -1.08554 151 145 132
0.13381 0.43429 -1.08342 157 151 138
0.13443 0.43431 -1.08437 159 153 138
0.13518 0.43433 -1.08591 161 154 139
0.13704 0.43438 -1.09032 164 154 145
0.13792 0.43441 -1.09224 163 155 144
0.13838 0.43443 -1.09244 165 158 145
0.13875 0.43445 -1.09228 164 159 146
0.13916 0.43448 -1.09225 166 160 147
0.13934 0.43450 -1.09134 166 162 148
0.13941 0.43452 -1.09003 166 163 147
0.13980 0.43495 -1.09011 172 167 152
0.13954 0.43454 -1.08894 168 164 147
0.13993 0.43497 -1.08902 172 168 152
0.13981 0.43456 -1.08846 168 165 146
0.14024 0.43458 -1.08855 168 164 144
0.14051 0.43460 -1.08806 169 164 143
0.09834 0.43211 -1.06978 149 151 129
0.09799 0.43172 -1.06972 150 152 129
0.09871 0.43213 -1.06982 141 140 122
0.09908 0.43214 -1.07036 102 87 80
0.09946 0.43215 -1.07134 85 54 54
0.09986 0.43180 -1.07134 85 48 44
0.10021 0.43219 -1.07162 94 52 52
0.10058 0.43221 -1.07165 106 73 70
0.10094 0.43225 -1.07004 145 128 116
0.10132 0.43227 -1.06998 152 150 133
0.10171 0.43192 -1.06998 150 152 134
0.12615 0.43341 -1.08664 116 108 96
0.12659 0.43302 -1.08664 116 108 95
0.12676 0.43343 -1.08777 117 109 94
0.12720 0.43304 -1.08777 116 108 94
0.12777 0.43347 -1.08888 117 112 99
0.12821 0.43308 -1.08888 117 111 89
0.12819 0.43349 -1.08895 120 114 96
0.12864 0.43310 -1.08895 119 110 89
0.12860 0.43351 -1.08895 121 114 96
0.12890 0.43354 -1.08838 123 115 101
0.12923 0.43356 -1.08795 122 115 106
0.12954 0.43359 -1.08749 123 118 106
0.12991 0.43361 -1.08728 125 120 105
0.13022 0.43364 -1.08684 125 120 103
0.13058 0.43366 -1.08665 131 121 107
0.13102 0.43368 -1.08682 132 123 111
0.13149 0.43370 -1.08712 134 126 117
0.13423 0.43389 -1.08510 142 137 125
0.13468 0.43391 -1.08533 145 139 127
0.13542 0.43393 -1.08675 146 141 128
0.13627 0.43395 -1.08865 148 141 128
0.13716 0.43397 -1.09067 151 142 128
0.13793 0.43399 -1.09214 151 144 129
0.13836 0.43401 -1.09223 152 146 134
0.13869 0.43403 -1.09187 151 146 137
0.13904 0.43406 -1.09163 152 147 135
0.13928 0.43408 -1.09098 153 151 135
0.13939 0.43410 -1.08980 153 153 135
0.13959 0.43413 -1.08902 156 153 136
0.13991 0.43415 -1.08868 158 153 135
0.14034 0.43417 -1.08881 160 155 136
0.14055 0.43419 -1.08808 160 154 135
0.14455 0.43448 -1.08412 168 160 145
0.14492 0.43489 -1.08419 171 163 148
0.09837 0.43174 -1.06965 149 150 127
0.09802 0.43135 -1.06959 149 151 129
0.09874 0.43176 -1.06969 141 136 116
0.09911 0.43177 -1.07067 98 84 72
0.09948 0.43178 -1.07105 82 52 49
0.09988 0.43143 -1.07106 85 48 45
0.10023 0.43182 -1.07138 95 53 50
0.10061 0.43184 -1.07155 111 77 70
0.12897 0.43312 -1.08855 120 110 93
0.12858 0.43269 -1.08848 120 109 89
0.12899 0.43271 -1.08851 119 107 87
0.12941 0.43273 -1.08855 119 108 87
0.12927 0.43315 -1.08799 119 110 98
0.12971 0.43276 -1.08800 117 110 88
0.12955 0.43318 -1.08738 118 111 96
0.12999 0.43279 -1.08738 117 110 91
0.12992 0.43320 -1.08719 118 111 95
0.13036 0.43281 -1.08720 118 109 91
0.13026 0.43323 -1.08685 119 110 93
0.13069 0.43284 -1.08685 120 110 88
0.13112 0.43327 -1.08711 123 112 95
0.13155 0.43288 -1.08712 118 109 89
0.13168 0.43329 -1.08788 123 113 99
0.13212 0.43290 -1.08789 119 112 89
0.13221 0.43331 -1.08848 122 115 99
0.13265 0.43292 -1.08848 118 111 87
0.13286 0.43332 -1.08961 123 116 98
0.13355 0.43334 -1.09091 125 118 98
0.13410 0.43336 -1.09153 127 119 102
0.13447 0.43338 -1.09132 128 120 106
0.13464 0.43341 -1.09025 127 119 107
0.13469 0.43344 -1.08868 129 120 108
0.13479 0.43347 -1.08737 129 123 109
0.13519 0.43349 -1.08736 129 126 109
0.13573 0.43351 -1.08793 130 127 110
0.13643 0.43353 -1.08917 130 125 110
0.13723 0.43355 -1.09082 135 129 109
0.13802 0.43356 -1.09236 136 131 112
0.13837 0.43359 -1.09212 136 131 116
0.13864 0.43361 -1.09153 137 131 121
0.13879 0.43364 -1.09051 138 132 119
0.13911 0.43366 -1.09017 139 135 119
0.13938 0.43369 -1.08964 139 137 119
0.13968 0.43371 -1.08924 142 139 119
0.14004 0.43374 -1.08904 145 139 120
0.14039 0.43376 -1.08885 147 140 122
0.14071 0.43378 -1.08853 148 140 124
0.14457 0.43408 -1.08407 160 153 138
0.14499 0.43370 -1.08407 150 141 128
0.09839 0.43138 -1.06949 149 148 123
0.09804 0.43099 -1.06942 148 150 128
0.09876 0.43140 -1.06952 138 132 106
0.09913 0.43139 -1.07068 95 80 63
0.09950 0.43141 -1.07082 81 52 47
0.09990 0.43106 -1.07082 87 46 44
0.10025 0.43145 -1.07114 95 52 50
0.10063 0.43146 -1.07143 113 78 73
0.13358 0.43292 -1.09088 120 111 89
0.13318 0.43248 -1.09080 118 111 86
0.13360 0.43250 -1.09084 118 110 86
0.13403 0.43253 -1.09088 119 109 87
0.13413 0.43294 -1.09149 122 112 93
0.13458 0.43254 -1.09150 121 111 93
0.13449 0.43296 -1.09128 122 114 98
0.13494 0.43257 -1.09129 120 108 94
0.13488 0.43299 -1.09119 120 110 98
0.13533 0.43259 -1.09119 119 106 93
0.13496 0.43302 -1.08972 120 109 98
0.13540 0.43263 -1.08972 120 109 91
0.13496 0.43306 -1.08793 123 112 98
0.13539 0.43267 -1.08794 120 111 89
0.13525 0.43308 -1.08747 121 115 95
0.13569 0.43270 -1.08747 118 111 88
0.13574 0.43310 -1.08785 121 116 95
0.13618 0.43272 -1.08785 118 110 87
0.13649 0.43312 -1.08930 120 114 93
0.13693 0.43273 -1.08930 119 110 86
0.13728 0.43313 -1.09088 122 115 91
0.13807 0.43314 -1.09243 124 117 96
0.13839 0.43317 -1.09205 124 118 101
0.13866 0.43319 -1.09148 125 119 105
0.13876 0.43323 -1.09025 127 119 106
0.13898 0.43325 -1.08951 128 117 103
0.13932 0.43328 -1.08925 127 119 102
0.13971 0.43330 -1.08921 128 123 102
0.14016 0.43332 -1.08937 131 125 104
0.14052 0.43335 -1.08921 132 124 105
0.14090 0.43337 -1.08913 134 125 108
0.09841 0.43101 -1.06940 149 148 126
0.09807 0.43062 -1.06934 147 150 128
0.09879 0.43103 -1.06942 136 129 106
0.09915 0.43102 -1.07060 94 75 62
0.09953 0.43104 -1.07081 81 49 47
0.09992 0.43069 -1.07082 87 45 47
0.10028 0.43108 -1.07093 96 51 50
0.13810 0.43272 -1.09240 119 110 89
0.13770 0.43228 -1.09232 120 109 89
0.13812 0.43230 -1.09236 117 109 91
0.13855 0.43232 -1.09240 120 111 94
0.13842 0.43275 -1.09202 121 112 94
0.13887 0.43235 -1.09202 120 109 96
0.13869 0.43278 -1.09144 121 112 98
0.13913 0.43238 -1.09145 120 109 96
0.13879 0.43281 -1.09021 121 111 100
0.13923 0.43242 -1.09022 119 109 94
0.13903 0.43284 -1.08955 120 108 95
0.13947 0.43245 -1.08956 119 109 94
0.13937 0.43286 -1.08932 120 109 94
0.13981 0.43247 -1.08932 120 109 95
0.13973 0.43289 -1.08915 120 111 96
0.14017 0.43250 -1.08916 122 110 97
0.14026 0.43291 -1.08961 123 113 98
0.14070 0.43252 -1.08962 121 108 97
0.14056 0.43293 -1.08922 123 112 96
0.14100 0.43254 -1.08923 122 108 98
0.14102 0.43295 -1.08944 125 112 100
0.14146 0.43256 -1.08945 120 108 97
0.10108 0.43003 -1.06977 149 140 120
0.10148 0.42968 -1.06978 149 146 122
0.10111 0.42966 -1.06979 148 141 121
0.10150 0.42931 -1.06979 147 147 124
0.10076 0.42928 -1.06959 133 113 100
0.10113 0.42929 -1.06987 147 142 123
0.10153 0.42894 -1.06987 145 147 124
0.10078 0.42890 -1.06986 134 114 103
0.10116 0.42891 -1.06999 146 142 124
0.10155 0.42856 -1.07000 144 145 128
0.09891 0.42812 -1.07671 109 97 80
0.10081 0.42851 -1.07016 136 119 108
0.10118 0.42853 -1.07014 145 141 125
0.10158 0.42818 -1.07015 142 144 128
0.09894 0.42781 -1.07498 105 93 79
0.09935 0.42745 -1.07499 79 47 41
0.10083 0.42813 -1.07035 139 122 106
0.10048 0.42774 -1.07028 104 71 61
0.10121 0.42815 -1.07036 145 143 125
0.10160 0.42780 -1.07037 142 144 122
0.09897 0.42749 -1.07366 100 88 75
0.09900 0.42710 -1.07365 98 81 67
0.10052 0.42727 -1.07214 107 75 68
0.09828 0.42685 -1.07051 140 141 121
0.09793 0.42645 -1.07044 141 140 119
0.09866 0.42687 -1.07054 135 128 109
0.09902 0.42672 -1.07373 96 75 63
0.09941 0.42688 -1.07104 80 45 43
0.09981 0.42653 -1.07104 80 41 42
0.10016 0.42692 -1.07124 90 49 47
0.10055 0.42686 -1.07267 108 77 69
0.09831 0.42646 -1.07061 141 141 120
0.09795 0.42607 -1.07054 142 141 121
0.09868 0.42649 -1.07064 131 125 101
0.09905 0.42642 -1.07213 92 72 57
0.09943 0.42649 -1.07140 78 45 43
0.10018 0.42656 -1.07096 91 49 47
0.10056 0.42656 -1.07140 110 79 70
0.09833 0.42608 -1.07080 142 141 119
0.09797 0.42568 -1.07073 139 141 124
0.09870 0.42610 -1.07084 126 121 95
0.09907 0.42605 -1.07199 89 70 52
0.09945 0.42609 -1.07169 75 44 39
0.09983 0.42611 -1.07172 79 43 42
0.10021 0.42617 -1.07117 92 49 48
0.10059 0.42617 -1.07153 114 85 77
0.09835 0.42569 -1.07105 139 142 119
0.09799 0.42529 -1.07099 139 141 122
0.09872 0.42569 -1.07130 121 117 95
0.10023 0.42578 -1.07131 91 50 54
0.10061 0.42579 -1.07161 119 93 88
0.10099 0.42583 -1.07135 140 133 118
0.09837 0.42529 -1.07141 137 141 112
0.09874 0.42526 -1.07217 120 114 89
0.09914 0.42490 -1.07217 81 55 42
0.10026 0.42540 -1.07139 91 52 53
0.10063 0.42541 -1.07165 124 99 92
0.10101 0.42544 -1.07143 140 135 117
0.10141 0.42509 -1.07143 138 142 120
0.10138 0.42548 -1.07123 139 142 122
0.10176 0.42550 -1.07127 140 144 125
0.10178 0.42512 -1.07123 140 143 127
0.11090 0.42620 -1.06895 162 164 142
0.11056 0.42582 -1.06888 158 161 140
0.11093 0.42584 -1.06892 160 162 144
0.11130 0.42586 -1.06895 139 141 123
0.09801 0.42485 -1.07190 138 141 118
0.09760 0.42521 -1.07189 140 143 123
0.09763 0.42483 -1.07186 139 143 117
0.09765 0.42445 -1.07183 138 142 114
0.09839 0.42490 -1.07151 137 138 109
0.09876 0.42487 -1.07226 118 106 82
0.10028 0.42502 -1.07147 94 54 52
0.10066 0.42502 -1.07183 127 103 90
0.10104 0.42505 -1.07161 138 137 111
0.10144 0.42470 -1.07162 138 142 115
0.11358 0.42593 -1.06987 119 121 105
0.11318 0.42628 -1.06987 150 152 134
0.11321 0.42591 -1.06983 141 144 126
0.11323 0.42555 -1.06980 127 129 110
0.11355 0.42630 -1.06990 134 136 117
0.11392 0.42632 -1.06994 110 113 96
0.11399 0.42593 -1.07029 100 101 91
0.11433 0.42632 -1.07035 96 97 86
0.11436 0.42595 -1.07032 93 92 85
0.09802 0.42442 -1.07267 137 139 115
0.09766 0.42402 -1.07260 136 140 113
0.09804 0.42404 -1.07264 135 138 114
0.09841 0.42447 -1.07228 137 134 110
0.09878 0.42446 -1.07267 115 99 79
0.10030 0.42463 -1.07157 96 54 51
0.10068 0.42463 -1.07190 129 106 90
0.10106 0.42466 -1.07177 139 138 109
0.10146 0.42431 -1.07178 136 142 112
0.11368 0.42552 -1.07061 106 107 94
0.11406 0.42553 -1.07074 96 95 88
0.11445 0.42554 -1.07089 90 89 83
0.11479 0.42593 -1.07096 91 92 80
0.11482 0.42556 -1.07092 89 90 77
0.11484 0.42519 -1.07089 87 87 72
0.09842 0.42404 -1.07295 134 133 108
0.09806 0.42363 -1.07288 135 138 117
0.09881 0.42405 -1.07305 110 93 76
0.10033 0.42425 -1.07168 96 57 53
0.10071 0.42424 -1.07207 129 110 93
0.10109 0.42427 -1.07193 138 138 110
0.10149 0.42392 -1.07193 135 140 111
0.11334 0.42512 -1.07066 116 113 99
0.11295 0.42547 -1.07065 144 146 122
0.11297 0.42510 -1.07062 137 136 115
0.11299 0.42473 -1.07059 125 123 106
0.11374 0.42512 -1.07090 101 100 88
0.11413 0.42477 -1.07090 93 95 82
0.11412 0.42514 -1.07102 94 94 83
0.11446 0.42518 -1.07082 88 89 77
0.11486 0.42483 -1.07082 87 85 71
0.07548 0.42317 -1.06069 128 127 103
0.07515 0.42280 -1.06063 125 124 99
0.07584 0.42319 -1.06068 135 136 112
0.09844 0.42362 -1.07335 133 131 112
0.09883 0.42362 -1.07375 104 88 77
0.09921 0.42374 -1.07244 78 50 46
0.09962 0.42338 -1.07245 76 42 40
0.09997 0.42380 -1.07232 83 40 41
0.10035 0.42385 -1.07194 95 60 55
0.11339 0.42473 -1.07083 107 104 94
0.11304 0.42434 -1.07076 114 116 99
0.11377 0.42475 -1.07098 99 98 88
0.11417 0.42439 -1.07099 94 93 81
0.07550 0.42282 -1.06066 127 125 103
0.07517 0.42244 -1.06060 124 125 98
0.07582 0.42282 -1.06091 136 135 112
0.09807 0.42313 -1.07439 136 135 117
0.09766 0.42350 -1.07438 134 137 115
0.09768 0.42311 -1.07435 132 135 113
0.09771 0.42273 -1.07432 130 134 111
0.09846 0.42319 -1.07390 132 127 112
0.09885 0.42325 -1.07346 99 85 75
0.09924 0.42332 -1.07290 75 48 46
0.09964 0.42296 -1.07291 77 40 38
0.10000 0.42338 -1.07274 83 44 42
0.10038 0.42345 -1.07214 96 65 58
0.11346 0.42433 -1.07132 100 101 89
0.11311 0.42393 -1.07125 109 110 95
0.11386 0.42397 -1.07132 98 95 82
0.11384 0.42434 -1.07139 97 97 85
0.11424 0.42399 -1.07140 94 89 77
0.07542 0.42241 -1.06120 126 127 101
0.07508 0.42204 -1.06114 124 125 93
0.07572 0.42240 -1.06152 136 136 109
0.07602 0.42240 -1.06184 142 146 119
0.07640 0.42206 -1.06184 145 147 121
0.09809 0.42270 -1.07490 132 133 113
0.09773 0.42230 -1.07483 129 132 112
0.09848 0.42276 -1.07445 128 125 105
0.09926 0.42294 -1.07290 74 44 40
0.09967 0.42258 -1.07290 78 37 32
0.10002 0.42299 -1.07282 84 44 40
0.10040 0.42305 -1.07237 98 67 60
0.07538 0.42202 -1.06148 127 128 95
0.07504 0.42165 -1.06142 123 124 91
0.07566 0.42200 -1.06193 136 135 104
0.07597 0.42200 -1.06222 143 143 115
0.09445 0.42337 -1.05968 135 130 113
0.09478 0.42373 -1.05974 134 136 115
0.09480 0.42338 -1.05983 134 132 113
0.09512 0.42374 -1.05990 134 136 116
0.09514 0.42339 -1.05987 132 135 110
0.09517 0.42305 -1.05984 129 130 106
0.09811 0.42229 -1.07512 129 132 113
0.09775 0.42189 -1.07505 128 127 109
0.09850 0.42236 -1.07465 124 121 102
0.09890 0.42248 -1.07348 91 77 61
0.10005 0.42261 -1.07286 85 42 37
0.10043 0.42266 -1.07247 101 71 64
0.10083 0.42230 -1.07248 133 125 107
0.07534 0.42164 -1.06179 126 128 94
0.07500 0.42126 -1.06172 122 125 96
0.07561 0.42161 -1.06225 135 135 103
0.07593 0.42161 -1.06251 143 142 112
0.07631 0.42127 -1.06251 144 147 124
0.07627 0.42162 -1.06265 146 147 118
0.07661 0.42200 -1.06272 146 148 125
0.07663 0.42164 -1.06268 147 149 124
0.07665 0.42128 -1.06265 146 149 126
0.09481 0.42300 -1.06014 131 126 108
0.09518 0.42267 -1.06014 123 124 103
0.09892 0.42212 -1.07317 89 69 57
0.09931 0.42217 -1.07294 74 41 35
0.09971 0.42181 -1.07295 80 39 36
0.10007 0.42221 -1.07304 85 44 35
0.07528 0.42124 -1.06215 124 126 100
0.07495 0.42086 -1.06209 123 124 97
0.07557 0.42122 -1.06259 134 136 110
0.07590 0.42122 -1.06279 142 144 120
0.07628 0.42088 -1.06279 143 146 129
0.09895 0.42177 -1.07285 86 61 53
0.09933 0.42179 -1.07289 75 40 39
0.09974 0.42143 -1.07290 80 38 36
0.07525 0.42085 -1.06243 125 125 102
0.07491 0.42047 -1.06237 125 123 97
0.07554 0.42083 -1.06283 134 135 113
0.07588 0.42084 -1.06297 141 144 125
0.07626 0.42050 -1.06298 143 146 127
0.09483 0.42225 -1.06062 117 115 93
0.09897 0.42141 -1.07255 82 58 49
0.09935 0.42142 -1.07275 74 39 39
0.10012 0.42145 -1.07287 85 41 37
0.07524 0.42048 -1.06255 126 125 101
0.07490 0.42010 -1.06248 125 123 99
0.07554 0.42046 -1.06293 135 134 111
0.07588 0.42047 -1.06306 143 144 125
0.07626 0.42013 -1.06307 144 146 125
0.09453 0.42196 -1.05977 107 105 83
0.09484 0.42187 -1.06093 109 105 86
0.09517 0.42185 -1.06143 109 107 85
0.09550 0.42222 -1.06149 116 118 94
0.09552 0.42187 -1.06146 109 107 82
0.09555 0.42152 -1.06143 101 96 74
0.10014 0.42105 -1.07304 88 45 39
0.07526 0.42012 -1.06253 124 127 101
0.07492 0.41974 -1.06247 123 125 98
0.07558 0.42011 -1.06281 132 135 108
0.07592 0.42012 -1.06296 141 143 121
0.09455 0.42160 -1.05989 100 95 77
0.09864 0.42065 -1.07225 96 89 64
0.09905 0.42029 -1.07225 70 44 34
0.10017 0.42064 -1.07338 89 46 42
0.10058 0.42027 -1.07339 104 79 71
0.10969 0.42127 -1.07315 138 134 116
0.10966 0.42165 -1.07318 136 134 116
0.11004 0.42167 -1.07321 146 145 126
0.11007 0.42129 -1.07318 146 145 125
0.07531 0.41977 -1.06235 124 129 99
0.07497 0.41940 -1.06228 123 123 101
0.07563 0.41977 -1.06261 131 136 103
0.07598 0.41978 -1.06270 139 143 114
0.07633 0.41980 -1.06277 143 147 122
0.07667 0.42017 -1.06284 145 148 127
0.07669 0.41982 -1.06281 146 150 129
0.07672 0.41946 -1.06278 146 149 130
0.09457 0.42125 -1.05992 92 84 70
0.09494 0.42092 -1.05992 89 82 63
0.09830 0.42044 -1.07036 96 91 74
0.09866 0.42028 -1.07214 85 74 57
0.10971 0.42088 -1.07317 137 136 117
0.07539 0.41945 -1.06202 125 127 102
0.07505 0.41907 -1.06196 122 121 100
0.07571 0.41945 -1.06225 131 135 106
0.07606 0.41946 -1.06235 138 143 113
0.07644 0.41912 -1.06235 145 147 126
0.07641 0.41947 -1.06245 144 148 123
0.07679 0.41913 -1.06245 145 148 130
0.08680 0.41873 -1.07603 127 126 99
0.08638 0.41910 -1.07603 138 141 114
0.08640 0.41871 -1.07600 134 133 106
0.08643 0.41831 -1.07596 127 124 99
0.08677 0.41912 -1.07607 135 136 110
0.09833 0.42010 -1.06997 88 82 69
0.10364 0.42141 -1.06064 110 110 91
0.10397 0.42177 -1.06070 124 126 106
0.10434 0.42143 -1.06090 113 115 96
0.10467 0.42179 -1.06096 128 129 111
0.10939 0.42044 -1.07350 123 125 102
0.10974 0.42050 -1.07313 134 138 116
0.11008 0.42057 -1.07267 142 146 126
0.11048 0.42022 -1.07267 142 144 124
0.11122 0.42064 -1.07272 149 150 128
0.11081 0.42100 -1.07271 148 149 125
0.11084 0.42062 -1.07268 148 148 127
0.11086 0.42024 -1.07265 147 148 126
0.11119 0.42102 -1.07275 152 152 128
0.11157 0.42104 -1.07279 145 144 124
0.07546 0.41912 -1.06172 124 123 101
0.07513 0.41875 -1.06166 122 121 97
0.07580 0.41913 -1.06190 133 133 109
0.07614 0.41914 -1.06200 140 143 119
0.07652 0.41880 -1.06200 144 146 126
0.08692 0.41846 -1.07492 119 116 90
0.08734 0.41809 -1.07492 99 95 72
0.09836 0.41987 -1.06856 83 76 58
0.09802 0.41948 -1.06849 82 78 60
0.09839 0.41950 -1.06853 83 74 53
0.10366 0.42107 -1.06054 97 99 75
0.10435 0.42111 -1.06058 103 101 80
0.10472 0.42109 -1.06102 104 101 85
0.10944 0.42002 -1.07390 118 122 98
0.10978 0.42010 -1.07332 132 137 112
0.11012 0.42017 -1.07288 140 144 123
0.11124 0.42026 -1.07268 144 145 122
0.07553 0.41879 -1.06148 124 124 101
0.07519 0.41842 -1.06141 120 121 94
0.07587 0.41880 -1.06161 134 134 111
0.07621 0.41881 -1.06171 141 143 120
0.07659 0.41847 -1.06172 144 144 124
0.08698 0.41810 -1.07456 109 104 79
0.08739 0.41774 -1.07456 90 85 64
0.09875 0.41936 -1.07005 75 56 39
0.10438 0.42074 -1.06072 94 88 67
0.10983 0.41968 -1.07365 129 133 108
0.11016 0.41977 -1.07305 138 141 118
0.11052 0.41982 -1.07278 140 141 121
0.11126 0.41988 -1.07268 133 135 111
0.11164 0.41991 -1.07264 112 112 90
0.11204 0.41955 -1.07265 102 97 78
0.07559 0.41846 -1.06125 124 126 96
0.07525 0.41809 -1.06118 122 120 96
0.07593 0.41847 -1.06135 135 135 107
0.07627 0.41848 -1.06150 142 141 117
0.07665 0.41814 -1.06150 143 144 124
0.09841 0.41918 -1.06811 84 74 53
0.09881 0.41883 -1.06811 77 49 37
0.11021 0.41936 -1.07332 132 132 111
0.11062 0.41900 -1.07333 122 117 98
0.11056 0.41942 -1.07298 135 135 117
0.11097 0.41906 -1.07299 119 114 98
0.11092 0.41947 -1.07270 133 133 116
0.11132 0.41912 -1.07270 113 106 90
0.07573 0.41819 -1.06058 123 125 96
0.07540 0.41781 -1.06051 124 119 97
0.07607 0.41820 -1.06070 134 135 108
0.07640 0.41820 -1.06087 140 141 119
0.07678 0.41786 -1.06087 143 146 121
0.09807 0.41880 -1.06795 91 82 62
