ply
format ascii 1.0
element face 0
property list uchar int vertex_indices
element vertex 986
property float x
property float y
property float z
property uchar diffuse_red
property uchar diffuse_green
property uchar diffuse_blue
end_header
0.09874 0.46128 -1.08187 170 163 148
0.09833 0.46170 -1.08196 173 163 159
0.09832 0.46128 -1.08192 174 164 156
0.09832 0.46086 -1.08188 170 163 152
0.09875 0.46170 -1.08191 171 161 155
0.09917 0.46171 -1.08186 156 147 139
0.09916 0.46129 -1.08182 156 146 132
0.09959 0.46171 -1.08181 127 111 107
0.11285 0.46188 -1.08249 214 210 205
0.11242 0.46230 -1.08258 208 201 203
0.11242 0.46188 -1.08255 206 202 201
0.11285 0.46231 -1.08253 214 209 209
0.11327 0.46231 -1.08248 220 217 213
0.11326 0.46185 -1.08232 220 218 209
0.11369 0.46228 -1.08231 226 225 216
0.11365 0.46178 -1.08193 224 224 212
0.11408 0.46221 -1.08192 231 230 218
0.11408 0.46178 -1.08188 229 230 216
0.11408 0.46136 -1.08184 227 228 213
0.09874 0.46072 -1.08117 170 163 149
0.09832 0.46030 -1.08118 172 164 158
0.09956 0.46033 -1.07928 124 109 96
0.09997 0.45992 -1.07920 107 79 76
0.11284 0.46144 -1.08240 213 209 202
0.11241 0.46101 -1.08242 204 202 192
0.11284 0.46102 -1.08236 212 209 199
0.11326 0.46102 -1.08231 219 216 204
0.11325 0.46141 -1.08220 219 218 207
0.11367 0.46099 -1.08211 224 223 210
0.11364 0.46133 -1.08179 223 223 209
0.11406 0.46091 -1.08170 229 228 216
0.09873 0.46023 -1.08081 171 164 156
0.09831 0.45981 -1.08082 171 163 153
0.09915 0.46023 -1.08076 156 147 138
0.10121 0.45994 -1.07910 152 110 109
0.10080 0.46035 -1.07919 129 83 80
0.10080 0.45994 -1.07915 129 83 84
0.10163 0.46036 -1.07909 178 151 143
0.10163 0.45994 -1.07905 177 151 144
0.10162 0.45953 -1.07901 176 148 151
0.09873 0.45973 -1.08040 170 161 152
0.09831 0.45931 -1.08041 170 164 146
0.09915 0.45974 -1.08035 155 146 135
0.09955 0.45955 -1.07944 125 109 102
0.09997 0.45963 -1.07974 104 75 76
0.10039 0.46005 -1.07972 113 74 75
0.10039 0.45963 -1.07969 110 70 75
0.10080 0.45961 -1.07951 129 84 89
0.10121 0.45951 -1.07900 151 109 115
0.09872 0.45917 -1.07967 167 161 144
0.09831 0.45875 -1.07968 170 163 151
0.09914 0.45917 -1.07962 155 146 135
0.09957 0.45945 -1.08086 124 108 102
0.09997 0.45919 -1.07957 104 74 71
0.10039 0.45919 -1.07952 112 66 67
0.10080 0.45919 -1.07947 130 81 81
0.10121 0.45910 -1.07897 153 110 110
0.10151 0.45815 -1.07441 176 147 143
0.10191 0.45855 -1.07440 183 169 171
0.10190 0.45809 -1.07407 185 169 165
0.10231 0.45849 -1.07406 183 175 177
0.10231 0.45809 -1.07402 183 173 173
0.09913 0.45864 -1.07902 157 148 133
0.09956 0.45885 -1.07995 127 107 98
0.09997 0.45875 -1.07944 105 75 75
0.10038 0.45876 -1.07939 109 71 75
0.10080 0.45875 -1.07928 129 81 89
0.10122 0.45880 -1.07945 152 108 114
0.10228 0.45751 -1.07313 183 174 165
0.10268 0.45791 -1.07311 182 173 169
0.10268 0.45751 -1.07308 183 176 169
0.10268 0.45711 -1.07304 181 175 168
0.09871 0.45816 -1.07872 170 160 150
0.09830 0.45775 -1.07873 170 161 153
0.09997 0.45837 -1.07956 106 75 75
0.10038 0.45796 -1.07947 111 75 75
0.10038 0.45838 -1.07951 113 71 76
0.10080 0.45836 -1.07939 129 82 87
0.10123 0.45850 -1.07998 153 109 107
0.10147 0.45703 -1.07282 177 148 140
0.10187 0.45702 -1.07271 183 168 155
0.10226 0.45663 -1.07262 181 172 161
0.09871 0.45767 -1.07831 168 160 149
0.09830 0.45726 -1.07832 171 162 151
0.09912 0.45768 -1.07826 155 147 135
0.09956 0.45812 -1.08036 123 111 99
0.09997 0.45799 -1.07968 104 81 75
0.10079 0.45792 -1.07920 129 82 88
0.10146 0.45658 -1.07250 177 146 142
0.10186 0.45658 -1.07246 181 166 156
0.10225 0.45619 -1.07238 182 170 160
0.09871 0.45719 -1.07792 168 160 148
0.09829 0.45678 -1.07793 170 162 150
0.09912 0.45719 -1.07787 153 145 133
0.09996 0.45751 -1.07933 102 79 72
0.10120 0.45745 -1.07885 151 112 108
0.10144 0.45599 -1.07151 173 149 142
0.10184 0.45604 -1.07171 180 168 157
0.10223 0.45565 -1.07162 180 172 160
0.09870 0.45672 -1.07755 168 160 148
0.09829 0.45631 -1.07757 169 162 146
0.09911 0.45672 -1.07750 154 145 133
0.09954 0.45699 -1.07879 121 107 100
0.10037 0.45710 -1.07923 109 71 67
0.10079 0.45710 -1.07918 128 83 78
0.10120 0.45704 -1.07883 154 114 106
0.10182 0.45551 -1.07099 180 169 155
0.10221 0.45512 -1.07091 179 172 163
0.09870 0.45631 -1.07755 166 159 142
0.09829 0.45590 -1.07757 169 163 150
0.09911 0.45632 -1.07753 152 144 128
0.09954 0.45673 -1.07956 121 106 99
0.09996 0.45668 -1.07923 102 76 77
0.10037 0.45627 -1.07914 109 69 73
0.10079 0.45668 -1.07913 127 81 78
0.10118 0.45650 -1.07812 154 110 109
0.10142 0.45508 -1.07080 176 150 145
0.10182 0.45513 -1.07102 180 168 159
0.10221 0.45474 -1.07093 179 172 160
0.09870 0.45590 -1.07750 166 160 145
0.09829 0.45549 -1.07752 170 163 145
0.09911 0.45591 -1.07749 150 142 132
0.09953 0.45607 -1.07824 120 107 105
0.09995 0.45619 -1.07879 101 77 82
0.10078 0.45619 -1.07869 126 80 86
0.10118 0.45612 -1.07824 152 111 114
0.10142 0.45472 -1.07094 175 150 145
0.10182 0.45477 -1.07114 179 167 158
0.09870 0.45550 -1.07749 168 159 141
0.09828 0.45509 -1.07750 169 164 149
0.09911 0.45551 -1.07750 155 145 131
0.09953 0.45573 -1.07859 121 105 100
0.09995 0.45577 -1.07873 101 72 76
0.10036 0.45577 -1.07868 112 69 75
0.10077 0.45577 -1.07863 128 81 86
0.10118 0.45573 -1.07832 153 112 112
0.09870 0.45510 -1.07752 170 159 146
0.09828 0.45469 -1.07753 170 162 152
0.09911 0.45512 -1.07754 157 141 130
0.09953 0.45533 -1.07859 125 103 96
0.09994 0.45532 -1.07847 105 72 70
0.10035 0.45532 -1.07842 113 66 67
0.10077 0.45532 -1.07837 130 79 83
0.10118 0.45533 -1.07834 151 113 113
0.09869 0.45470 -1.07753 169 160 151
0.09828 0.45429 -1.07754 168 162 157
0.09910 0.45472 -1.07756 154 140 131
0.09952 0.45489 -1.07842 123 102 98
0.09994 0.45486 -1.07821 103 72 73
0.10035 0.45486 -1.07816 109 69 70
0.10076 0.45487 -1.07811 129 83 85
0.10118 0.45493 -1.07838 153 114 113
0.11333 0.45528 -1.07847 220 215 201
0.11374 0.45487 -1.07839 220 221 206
0.09869 0.45430 -1.07752 166 162 153
0.09828 0.45388 -1.07753 169 164 159
0.09910 0.45431 -1.07752 153 144 134
0.09952 0.45448 -1.07842 125 104 104
0.09994 0.45449 -1.07838 102 72 76
0.10035 0.45449 -1.07833 108 67 71
0.10076 0.45449 -1.07828 128 80 85
0.10118 0.45452 -1.07837 152 113 112
0.11295 0.45494 -1.07889 211 208 190
0.11334 0.45489 -1.07858 218 217 200
0.11376 0.45448 -1.07849 220 220 205
0.09869 0.45380 -1.07700 167 161 150
0.09828 0.45339 -1.07701 170 164 156
0.09910 0.45380 -1.07694 152 142 129
0.09952 0.45407 -1.07839 120 105 101
0.09994 0.45412 -1.07861 101 74 79
0.10035 0.45413 -1.07857 107 70 74
0.10077 0.45413 -1.07852 127 83 88
0.10118 0.45410 -1.07829 153 115 118
0.11295 0.45452 -1.07887 209 207 188
0.11335 0.45450 -1.07866 216 216 200
0.11377 0.45408 -1.07857 219 220 202
0.09868 0.45339 -1.07698 169 163 150
0.09827 0.45298 -1.07699 170 162 151
0.09909 0.45340 -1.07693 152 143 131
0.09952 0.45368 -1.07846 120 106 99
0.09994 0.45371 -1.07859 98 75 71
0.10035 0.45371 -1.07854 108 70 72
0.10118 0.45369 -1.07830 151 115 113
0.10145 0.45269 -1.07257 175 150 142
0.10185 0.45268 -1.07244 179 165 153
0.10224 0.45228 -1.07235 177 169 152
0.10224 0.45268 -1.07239 179 169 153
0.10264 0.45308 -1.07238 178 172 161
0.10264 0.45268 -1.07234 179 173 159
0.10264 0.45228 -1.07230 178 171 157
0.09952 0.45327 -1.07847 117 103 95
0.09994 0.45337 -1.07896 98 74 71
0.10077 0.45338 -1.07887 127 82 82
0.10122 0.45364 -1.08029 154 114 113
0.10147 0.45241 -1.07323 175 152 145
0.10186 0.45240 -1.07309 178 166 152
0.10226 0.45200 -1.07301 176 169 155
0.11548 0.45311 -1.07510 213 215 201
0.11508 0.45352 -1.07519 219 218 207
0.11507 0.45311 -1.07515 218 219 206
0.11549 0.45352 -1.07514 214 215 206
0.11590 0.45353 -1.07509 211 212 203
0.11589 0.45271 -1.07502 209 210 193
0.09868 0.45260 -1.07705 168 163 159
0.09827 0.45219 -1.07706 171 164 158
0.09909 0.45262 -1.07707 151 143 135
0.09950 0.45257 -1.07673 118 102 96
0.10122 0.45323 -1.08030 150 115 124
0.10148 0.45216 -1.07404 173 153 151
0.10188 0.45212 -1.07375 176 168 156
0.10228 0.45172 -1.07366 178 168 157
0.11549 0.45272 -1.07517 212 213 198
0.11508 0.45231 -1.07518 215 217 202
0.11549 0.45231 -1.07513 211 213 200
0.11590 0.45232 -1.07508 209 211 198
0.09868 0.45223 -1.07722 168 159 154
0.09827 0.45182 -1.07723 171 163 151
0.09909 0.45223 -1.07717 154 141 129
0.09950 0.45221 -1.07700 120 101 91
0.10188 0.45176 -1.07396 178 167 152
0.10229 0.45136 -1.07387 178 169 156
0.09868 0.45193 -1.07785 167 158 145
0.09827 0.45152 -1.07786 172 164 152
0.09909 0.45194 -1.07787 152 141 123
0.10122 0.45243 -1.08047 154 112 116
0.10148 0.45136 -1.07399 177 150 148
0.10188 0.45133 -1.07378 177 165 157
0.10228 0.45094 -1.07369 175 167 157
0.09868 0.45153 -1.07789 168 160 147
0.09827 0.45112 -1.07791 167 165 149
0.09909 0.45154 -1.07786 151 144 128
0.09949 0.45135 -1.07668 116 104 93
0.10122 0.45203 -1.08057 152 112 115
0.10147 0.45089 -1.07353 174 152 148
0.10186 0.45086 -1.07327 177 165 157
0.10226 0.45046 -1.07318 176 169 159
0.09868 0.45113 -1.07795 165 161 143
0.09826 0.45072 -1.07796 170 162 151
0.09909 0.45114 -1.07792 150 142 126
0.09950 0.45105 -1.07728 115 101 93
0.09991 0.45109 -1.07750 97 73 72
0.10032 0.45110 -1.07745 107 71 72
0.10075 0.45119 -1.07797 127 85 87
0.10118 0.45132 -1.07872 149 117 115
0.10145 0.45038 -1.07284 173 154 145
0.10185 0.45036 -1.07265 176 168 157
0.10224 0.44997 -1.07257 175 170 156
0.09868 0.45074 -1.07800 166 158 144
0.09826 0.45032 -1.07802 167 164 150
0.09909 0.45074 -1.07798 152 141 129
0.09951 0.45083 -1.07846 121 100 98
0.09992 0.45086 -1.07858 104 71 74
0.10034 0.45087 -1.07857 108 67 70
0.10076 0.45087 -1.07852 127 84 86
0.10118 0.45092 -1.07875 152 119 116
0.10143 0.44986 -1.07201 173 155 145
0.10183 0.44986 -1.07196 177 167 153
0.10222 0.44947 -1.07188 173 168 157
0.09868 0.45035 -1.07811 166 158 145
0.09826 0.44993 -1.07812 169 163 153
0.09909 0.45036 -1.07810 155 142 128
0.09950 0.45040 -1.07829 122 101 94
0.09992 0.45042 -1.07840 104 74 72
0.10034 0.45043 -1.07837 110 68 69
0.10075 0.45043 -1.07832 128 82 88
0.10118 0.45051 -1.07879 154 117 118
0.10143 0.44946 -1.07195 174 153 147
0.10182 0.44945 -1.07183 175 164 155
0.10222 0.44905 -1.07175 173 169 163
0.09867 0.44996 -1.07826 168 159 146
0.09826 0.44955 -1.07827 167 164 150
0.09909 0.44997 -1.07826 153 140 127
0.09950 0.44997 -1.07816 123 99 93
0.09992 0.44998 -1.07817 103 70 68
0.10033 0.44998 -1.07812 111 69 67
0.10074 0.44999 -1.07807 128 84 84
0.10117 0.45005 -1.07841 150 116 115
0.10142 0.44901 -1.07161 172 154 147
0.10181 0.44899 -1.07142 173 166 157
0.10220 0.44860 -1.07133 172 170 160
0.09867 0.44959 -1.07851 168 163 150
0.09826 0.44918 -1.07852 169 164 148
0.09909 0.44960 -1.07846 151 142 130
0.09950 0.44957 -1.07823 117 104 98
0.09991 0.44956 -1.07809 99 75 80
0.10033 0.44956 -1.07802 109 69 79
0.10074 0.44956 -1.07795 126 83 89
0.10113 0.44936 -1.07659 149 117 115
0.10141 0.44858 -1.07135 170 151 143
0.10180 0.44857 -1.07118 174 168 156
0.10220 0.44818 -1.07110 173 168 154
0.09867 0.44921 -1.07870 166 164 146
0.09826 0.44880 -1.07871 168 162 150
0.09909 0.44922 -1.07865 151 145 124
0.09950 0.44911 -1.07789 118 104 90
0.09992 0.44921 -1.07847 101 74 75
0.10033 0.44922 -1.07845 108 69 76
0.10075 0.44922 -1.07844 126 84 84
0.10111 0.44887 -1.07594 152 119 109
0.10180 0.44816 -1.07103 178 167 152
0.10219 0.44776 -1.07095 172 166 153
0.09867 0.44867 -1.07775 166 161 147
0.09825 0.44825 -1.07776 170 165 144
0.09908 0.44867 -1.07770 152 143 127
0.09950 0.44874 -1.07812 121 105 92
0.09991 0.44878 -1.07831 104 75 71
0.10033 0.44878 -1.07828 111 71 71
0.10140 0.44778 -1.07119 173 153 142
0.10179 0.44776 -1.07098 174 164 149
0.10219 0.44737 -1.07089 170 168 155
0.09866 0.44822 -1.07744 168 163 144
0.09825 0.44780 -1.07745 169 164 144
0.09907 0.44822 -1.07739 150 142 125
0.09949 0.44822 -1.07732 120 100 88
0.10075 0.44841 -1.07847 129 85 85
0.10111 0.44805 -1.07585 153 122 121
0.10140 0.44735 -1.07092 173 157 150
0.10179 0.44734 -1.07077 174 167 156
0.10218 0.44695 -1.07068 173 166 159
0.09948 0.44775 -1.07683 116 102 92
0.09991 0.44800 -1.07857 99 75 67
0.10033 0.44800 -1.07852 111 73 66
0.10074 0.44801 -1.07850 129 86 82
0.10140 0.44697 -1.07097 171 152 145
0.10179 0.44696 -1.07082 173 164 158
0.10218 0.44657 -1.07074 172 166 157
0.09865 0.44729 -1.07660 170 160 146
0.09824 0.44688 -1.07661 170 161 143
0.09906 0.44729 -1.07655 151 140 132
0.09948 0.44738 -1.07711 116 99 97
0.10033 0.44758 -1.07846 107 72 69
0.10140 0.44660 -1.07110 170 154 141
0.10179 0.44658 -1.07092 171 164 153
0.10218 0.44619 -1.07083 173 168 155
0.09865 0.44691 -1.07677 168 159 138
0.09824 0.44650 -1.07678 167 162 145
0.09906 0.44688 -1.07650 150 140 125
0.09948 0.44694 -1.07685 116 99 95
0.10140 0.44623 -1.07122 170 155 144
0.10179 0.44621 -1.07103 171 166 150
0.10219 0.44582 -1.07095 173 166 159
0.09866 0.44660 -1.07748 166 159 143
0.09824 0.44619 -1.07750 167 164 150
0.09907 0.44658 -1.07726 150 141 130
0.09947 0.44649 -1.07650 114 100 95
0.10140 0.44584 -1.07128 172 151 144
0.10179 0.44582 -1.07108 174 162 156
0.10219 0.44543 -1.07100 171 166 152
0.09865 0.44607 -1.07650 167 161 145
0.09824 0.44565 -1.07651 168 161 146
0.09906 0.44603 -1.07616 151 144 126
0.10140 0.44544 -1.07118 172 154 142
0.10179 0.44504 -1.07109 171 163 152
0.10179 0.44542 -1.07100 173 165 153
0.10218 0.44503 -1.07091 170 164 151
0.09865 0.44569 -1.07676 167 160 142
0.09824 0.44528 -1.07677 169 165 147
0.09906 0.44566 -1.07643 152 142 121
0.10139 0.44503 -1.07105 169 158 146
0.10179 0.44464 -1.07097 169 164 152
0.10139 0.44463 -1.07100 173 158 146
0.09946 0.44480 -1.07593 113 97 88
0.09987 0.44479 -1.07576 97 68 69
0.10028 0.44481 -1.07589 105 64 66
0.10069 0.44481 -1.07584 127 84 83
0.10140 0.44429 -1.07142 171 157 141
0.10179 0.44427 -1.07119 170 164 150
0.10219 0.44467 -1.07118 169 164 155
0.10219 0.44428 -1.07114 168 166 154
0.10219 0.44388 -1.07111 169 166 153
0.09945 0.44437 -1.07575 112 97 87
0.09986 0.44440 -1.07586 94 68 62
0.10027 0.44438 -1.07564 106 66 66
0.10068 0.44440 -1.07576 127 85 86
0.10107 0.44427 -1.07461 153 122 115
0.10140 0.44391 -1.07149 172 156 141
0.10179 0.44389 -1.07128 172 163 151
0.10219 0.44350 -1.07119 169 165 159
0.10106 0.44386 -1.07448 153 122 120
0.10140 0.44354 -1.07170 171 153 144
0.10179 0.44350 -1.07126 170 163 153
0.10219 0.44310 -1.07118 166 167 156
0.09943 0.44338 -1.07408 113 94 93
0.09984 0.44343 -1.07447 98 65 67
0.10025 0.44343 -1.07442 107 64 62
0.10067 0.44352 -1.07509 128 86 86
0.10104 0.44333 -1.07337 156 125 120
0.10140 0.44314 -1.07162 169 156 144
0.10180 0.44274 -1.07154 169 164 150
0.09984 0.44301 -1.07427 97 64 72
0.10025 0.44302 -1.07433 105 67 76
0.10066 0.44308 -1.07482 125 88 87
0.10105 0.44301 -1.07404 153 128 117
0.10140 0.44276 -1.07178 168 157 143
0.09983 0.44258 -1.07398 99 69 68
0.10024 0.44258 -1.07393 105 69 74
0.10065 0.44266 -1.07457 124 88 92
0.10103 0.44251 -1.07312 151 128 120
0.10139 0.44231 -1.07119 166 159 142
0.10178 0.44191 -1.07110 167 162 145
0.10178 0.44228 -1.07091 168 165 146
0.10218 0.44229 -1.07087 167 165 150
0.10217 0.44189 -1.07083 165 164 145
0.09943 0.44217 -1.07397 109 94 76
0.09983 0.44218 -1.07400 99 72 67
0.10024 0.44218 -1.07395 105 68 77
0.10065 0.44225 -1.07453 126 89 95
0.10102 0.44208 -1.07288 153 128 123
0.10138 0.44189 -1.07098 169 158 143
0.10178 0.44150 -1.07090 168 160 147
0.09862 0.44175 -1.07391 163 158 136
0.09821 0.44134 -1.07393 166 159 142
0.09861 0.44135 -1.07388 163 156 140
0.09902 0.44135 -1.07383 142 133 115
0.09984 0.44184 -1.07455 100 67 64
0.10024 0.44184 -1.07449 108 66 71
0.10066 0.44188 -1.07482 126 88 88
0.10103 0.44172 -1.07318 152 127 117
0.10139 0.44156 -1.07158 166 154 141
0.10179 0.44117 -1.07150 168 161 146
0.09943 0.44145 -1.07476 108 89 78
0.09902 0.44104 -1.07477 141 130 116
0.09984 0.44145 -1.07470 98 65 61
0.10025 0.44145 -1.07466 108 64 65
0.10066 0.44148 -1.07481 127 86 85
0.10138 0.44113 -1.07121 169 154 140
0.09943 0.44103 -1.07462 110 90 82
0.09983 0.44101 -1.07432 100 67 65
0.10024 0.44101 -1.07428 109 65 65
0.10064 0.44102 -1.07432 129 87 87
0.10102 0.44090 -1.07292 152 125 122
0.10139 0.44075 -1.07132 166 152 142
0.10178 0.44035 -1.07123 163 158 145
0.10176 0.44066 -1.07031 165 158 144
0.10216 0.44105 -1.07029 166 159 147
0.10215 0.44066 -1.07026 166 162 149
0.10215 0.44026 -1.07022 160 161 145
0.09943 0.44065 -1.07485 111 88 81
0.09983 0.44063 -1.07451 99 65 65
0.10064 0.44062 -1.07427 127 85 87
0.10101 0.44044 -1.07226 150 121 118
0.10136 0.44027 -1.07042 163 150 143
0.10176 0.43988 -1.07034 161 159 141
0.09943 0.44023 -1.07465 108 86 77
0.09902 0.43982 -1.07467 143 132 117
0.09983 0.44024 -1.07468 95 62 61
0.10024 0.44021 -1.07432 105 67 70
0.09942 0.43983 -1.07466 108 87 76
0.09983 0.43984 -1.07466 96 63 57
0.10023 0.43981 -1.07429 107 64 64
0.10099 0.43958 -1.07160 153 125 116
0.10132 0.43934 -1.06875 164 154 139
0.10171 0.43895 -1.06867 161 161 143
0.09859 0.43915 -1.07156 160 153 136
0.09820 0.43954 -1.07165 164 158 147
0.09820 0.43915 -1.07161 162 160 145
0.09819 0.43875 -1.07158 159 158 144
0.09860 0.43955 -1.07160 160 155 138
0.09899 0.43916 -1.07162 140 127 114
0.09942 0.43942 -1.07460 107 82 79
0.09983 0.43943 -1.07461 97 60 65
0.10023 0.43940 -1.07424 109 63 63
0.10096 0.43906 -1.07008 151 130 118
0.10131 0.43893 -1.06850 163 156 142
0.10170 0.43854 -1.06842 159 159 142
0.09859 0.43873 -1.07123 158 153 138
0.09819 0.43833 -1.07125 160 156 145
0.09899 0.43876 -1.07160 139 126 119
0.09942 0.43903 -1.07474 106 82 87
0.10024 0.43904 -1.07468 107 64 64
0.10064 0.43904 -1.07464 126 85 82
0.10096 0.43870 -1.07052 151 128 117
0.09859 0.43831 -1.07093 156 153 144
0.09819 0.43791 -1.07094 162 156 140
0.09899 0.43835 -1.07136 137 129 126
0.09942 0.43865 -1.07504 103 85 86
0.09983 0.43865 -1.07496 96 68 67
0.10024 0.43865 -1.07491 105 66 69
0.10064 0.43864 -1.07467 125 86 91
0.11086 0.43769 -1.06094 182 184 167
0.11049 0.43732 -1.06095 176 175 156
0.11086 0.43732 -1.06091 183 182 164
0.11121 0.43768 -1.06068 190 193 174
0.11158 0.43731 -1.06060 193 195 176
0.09859 0.43791 -1.07088 158 153 137
0.09819 0.43751 -1.07089 160 159 133
0.09899 0.43804 -1.07242 138 127 111
0.09943 0.43828 -1.07544 105 84 74
0.09983 0.43828 -1.07534 98 63 64
0.10024 0.43828 -1.07526 105 62 65
0.10065 0.43827 -1.07512 124 85 81
0.10097 0.43794 -1.07073 149 127 114
0.09859 0.43757 -1.07154 155 153 130
0.09819 0.43717 -1.07156 159 159 138
0.09900 0.43770 -1.07317 137 130 108
0.09943 0.43789 -1.07571 101 81 67
0.09984 0.43790 -1.07566 97 61 55
0.10025 0.43790 -1.07565 105 63 61
0.10065 0.43788 -1.07531 125 88 84
0.10097 0.43755 -1.07082 152 128 118
0.10134 0.43747 -1.06972 161 152 134
0.09858 0.43716 -1.07139 155 156 134
0.09818 0.43676 -1.07140 159 160 145
0.09943 0.43754 -1.07646 103 83 71
0.09984 0.43713 -1.07638 93 61 62
0.09984 0.43754 -1.07635 95 62 59
0.10025 0.43753 -1.07606 106 64 65
0.10066 0.43750 -1.07558 124 90 85
0.10096 0.43714 -1.07062 150 128 117
0.10134 0.43709 -1.06991 160 149 134
0.10173 0.43670 -1.06982 158 152 136
0.09858 0.43677 -1.07147 156 157 143
0.09818 0.43637 -1.07148 162 157 142
0.10066 0.43710 -1.07576 124 87 87
0.09858 0.43644 -1.07238 158 152 140
0.09818 0.43604 -1.07239 159 158 141
0.09858 0.43604 -1.07234 154 152 138
0.10065 0.43669 -1.07568 126 85 86
0.10065 0.43626 -1.07535 123 90 85
0.10064 0.43583 -1.07499 121 92 88
0.09898 0.43526 -1.07262 132 122 108
0.09940 0.43537 -1.07427 99 79 70
0.09981 0.43537 -1.07422 92 59 55
0.10022 0.43537 -1.07417 105 65 63
0.10063 0.43541 -1.07464 122 90 88
0.09817 0.43478 -1.07131 161 155 142
0.09778 0.43518 -1.07140 159 155 144
0.09778 0.43478 -1.07136 156 157 142
0.09777 0.43438 -1.07133 158 157 140
0.09941 0.43500 -1.07492 100 81 71
0.09981 0.43460 -1.07483 90 59 55
0.09982 0.43500 -1.07487 92 59 57
0.10022 0.43501 -1.07482 102 64 64
0.10064 0.43503 -1.07516 123 90 86
0.10095 0.43477 -1.07052 149 130 118
0.10134 0.43477 -1.07031 157 152 134
0.10174 0.43437 -1.07023 153 155 135
0.09817 0.43437 -1.07104 160 153 140
0.09777 0.43397 -1.07106 158 154 139
0.09857 0.43437 -1.07100 155 149 135
0.09897 0.43442 -1.07169 128 121 107
0.10095 0.43437 -1.07039 149 130 119
0.10134 0.43437 -1.07022 155 152 132
0.10174 0.43397 -1.07013 152 155 133
0.09817 0.43397 -1.07083 159 152 140
0.09777 0.43357 -1.07084 155 153 137
0.09817 0.43357 -1.07079 157 152 135
0.09857 0.43396 -1.07065 155 148 130
0.09897 0.43398 -1.07097 130 119 103
0.10094 0.43395 -1.06990 146 130 119
0.10133 0.43395 -1.06980 154 151 129
0.10172 0.43356 -1.06972 153 153 130
0.09857 0.43359 -1.07109 155 148 128
0.09817 0.43319 -1.07110 155 155 137
0.09897 0.43360 -1.07125 129 117 101
0.10058 0.43367 -1.07221 122 89 95
0.10093 0.43355 -1.06967 147 129 125
0.10132 0.43355 -1.06960 155 151 133
0.10172 0.43316 -1.06952 154 155 131
0.09856 0.43318 -1.07079 151 147 128
0.09896 0.43319 -1.07082 127 116 100
0.10094 0.43317 -1.07004 146 128 125
0.10133 0.43317 -1.06987 156 152 133
0.10172 0.43278 -1.06979 151 153 132
0.09816 0.43276 -1.07031 157 153 136
0.09777 0.43315 -1.07039 155 154 138
0.09777 0.43276 -1.07036 155 152 136
0.09776 0.43236 -1.07032 153 153 136
0.09856 0.43276 -1.07026 151 147 125
0.09896 0.43277 -1.07037 126 116 95
0.09936 0.43283 -1.07160 92 72 59
0.09976 0.43243 -1.07151 91 58 54
0.10016 0.43283 -1.07150 99 59 58
0.10057 0.43285 -1.07173 123 88 88
0.10094 0.43279 -1.07027 149 132 123
0.10133 0.43278 -1.07006 155 151 133
0.10173 0.43239 -1.06998 151 154 126
0.09816 0.43235 -1.06989 155 152 133
0.09776 0.43195 -1.06991 154 151 134
0.09855 0.43235 -1.06985 151 145 121
0.09895 0.43237 -1.07024 127 115 97
0.09936 0.43244 -1.07174 95 71 62
0.09976 0.43204 -1.07166 91 58 54
0.10017 0.43244 -1.07165 98 62 61
0.10056 0.43242 -1.07112 122 91 90
0.10133 0.43239 -1.07005 153 152 129
0.10173 0.43200 -1.06996 150 152 124
0.14204 0.43344 -1.08549 157 159 145
0.14242 0.43343 -1.08520 157 159 143
0.09816 0.43194 -1.06954 153 151 129
0.09776 0.43155 -1.06955 151 153 137
0.09895 0.43198 -1.07024 125 115 91
0.09936 0.43204 -1.07175 95 70 61
0.09976 0.43164 -1.07167 91 58 54
0.10016 0.43204 -1.07166 98 65 60
0.10094 0.43200 -1.07024 148 132 116
0.14171 0.43294 -1.08426 140 141 127
0.14238 0.43291 -1.08337 142 143 125
0.14269 0.43290 -1.08284 143 143 125
0.09815 0.43154 -1.06923 151 152 133
0.09776 0.43115 -1.06924 150 152 135
0.09855 0.43154 -1.06918 146 145 120
0.09895 0.43159 -1.07045 125 116 99
0.09936 0.43162 -1.07120 91 70 63
0.09975 0.43122 -1.07111 89 56 53
0.10015 0.43163 -1.07110 99 63 59
0.10094 0.43161 -1.07030 148 130 119
0.10133 0.43160 -1.07012 152 146 130
0.10173 0.43121 -1.07003 150 147 126
0.09815 0.43114 -1.06906 153 153 133
0.09776 0.43075 -1.06907 152 151 131
0.09855 0.43115 -1.06901 146 144 122
0.09895 0.43119 -1.07034 124 116 95
0.10093 0.43120 -1.06988 149 131 122
0.10132 0.43120 -1.06980 152 146 133
0.10172 0.43080 -1.06972 149 148 125
0.09815 0.43075 -1.06912 152 150 132
0.09776 0.43036 -1.06913 154 152 133
0.09895 0.43081 -1.07094 124 113 93
0.09934 0.43080 -1.07033 90 68 56
0.09974 0.43041 -1.07024 89 57 53
0.10014 0.43081 -1.07023 100 61 58
0.10092 0.43080 -1.06970 149 132 117
0.10132 0.43080 -1.06966 151 147 128
0.10171 0.43041 -1.06958 148 148 127
0.09815 0.43036 -1.06919 152 149 131
0.09775 0.42997 -1.06920 151 154 136
0.09854 0.43037 -1.06914 147 143 124
0.09895 0.43043 -1.07131 121 110 89
0.09934 0.43040 -1.07004 91 68 57
0.09973 0.43000 -1.06996 89 55 59
0.10013 0.43040 -1.06995 101 63 61
0.10092 0.43040 -1.06977 148 131 114
0.10132 0.43041 -1.06972 150 146 125
0.10171 0.43001 -1.06964 146 149 129
0.09854 0.42997 -1.06907 145 141 122
0.09933 0.42999 -1.06941 89 67 63
0.09972 0.42960 -1.06933 88 54 57
0.10012 0.42999 -1.06934 100 63 68
0.10052 0.43000 -1.06929 122 93 90
0.10092 0.43001 -1.06982 147 132 118
0.10132 0.43001 -1.06977 148 145 127
0.10171 0.42962 -1.06968 147 149 128
0.09814 0.42958 -1.06927 147 149 127
0.09775 0.42919 -1.06928 150 149 130
0.09814 0.42919 -1.06923 148 148 129
0.09854 0.42958 -1.06922 144 142 121
0.09896 0.42965 -1.07223 120 110 98
0.09933 0.42959 -1.06933 87 64 63
0.09972 0.42920 -1.06925 88 54 52
0.10012 0.42960 -1.06924 99 63 63
0.10051 0.42960 -1.06922 124 94 89
0.10092 0.42962 -1.06996 148 133 119
0.10132 0.42962 -1.06987 150 146 128
0.10171 0.42923 -1.06979 148 146 127
0.09896 0.42926 -1.07302 119 109 94
0.09933 0.42920 -1.06936 86 63 56
0.09972 0.42881 -1.06928 88 56 52
0.10012 0.42921 -1.06926 98 60 58
0.10051 0.42921 -1.06927 124 93 85
0.10092 0.42923 -1.07005 148 132 118
0.10132 0.42923 -1.06993 150 144 128
0.10171 0.42883 -1.06984 148 145 124
0.09814 0.42880 -1.06975 150 148 129
0.09775 0.42880 -1.06980 150 148 130
0.09774 0.42841 -1.06976 148 147 132
0.09854 0.42881 -1.06970 143 139 119
0.09896 0.42886 -1.07319 118 107 90
0.09933 0.42881 -1.06948 85 64 54
0.09972 0.42842 -1.06939 87 54 49
0.10012 0.42881 -1.06938 98 61 59
0.10051 0.42882 -1.06944 123 91 87
0.10132 0.42883 -1.06997 149 145 124
0.10171 0.42844 -1.06988 147 145 122
0.09814 0.42841 -1.06996 149 148 131
0.09774 0.42802 -1.06997 148 146 129
0.09896 0.42846 -1.07343 118 106 85
0.09933 0.42842 -1.06970 85 63 51
0.09972 0.42803 -1.06962 85 50 44
0.10012 0.42842 -1.06961 99 60 59
0.10052 0.42843 -1.06977 124 92 91
0.10093 0.42844 -1.07033 150 131 120
0.10132 0.42844 -1.07013 150 145 122
0.10172 0.42804 -1.07005 146 144 120
0.09814 0.42802 -1.07022 149 146 126
0.09774 0.42762 -1.07023 148 144 127
0.09854 0.42802 -1.07017 142 136 111
0.09896 0.42806 -1.07377 119 104 85
0.09933 0.42803 -1.06999 86 61 51
0.09972 0.42763 -1.06991 88 52 54
0.10012 0.42803 -1.06990 99 59 55
0.10052 0.42804 -1.07011 124 93 87
0.10093 0.42804 -1.07064 149 132 114
0.10133 0.42765 -1.07055 147 140 122
0.10133 0.42805 -1.07041 148 142 118
0.10172 0.42765 -1.07032 145 142 122
0.09814 0.42763 -1.07026 149 145 127
0.09774 0.42723 -1.07027 145 143 128
0.09853 0.42763 -1.07021 140 135 114
0.09896 0.42765 -1.07353 118 103 86
0.09933 0.42763 -1.07026 87 61 55
0.09973 0.42724 -1.07018 86 51 57
0.10012 0.42764 -1.07017 99 60 61
0.10053 0.42764 -1.07052 124 94 85
0.10094 0.42765 -1.07083 147 132 114
0.09814 0.42723 -1.07030 147 145 127
0.09774 0.42683 -1.07031 143 142 130
0.09853 0.42723 -1.07025 140 138 117
0.09895 0.42725 -1.07360 111 101 84
0.09933 0.42724 -1.07060 85 61 56
0.09973 0.42684 -1.07051 85 51 55
0.10013 0.42724 -1.07050 97 59 59
0.10054 0.42725 -1.07092 121 93 82
0.10094 0.42725 -1.07098 144 132 112
0.10133 0.42725 -1.07075 147 141 122
0.10173 0.42725 -1.07071 143 142 121
0.10173 0.42686 -1.07067 143 143 121
0.09813 0.42683 -1.07049 145 143 126
0.09773 0.42643 -1.07050 145 143 126
0.09853 0.42684 -1.07044 141 137 115
0.09895 0.42684 -1.07363 110 99 83
0.09933 0.42684 -1.07089 83 61 56
0.09973 0.42645 -1.07081 86 51 47
0.10013 0.42685 -1.07080 96 61 59
0.10054 0.42685 -1.07125 122 94 83
0.10094 0.42685 -1.07115 144 133 112
0.10134 0.42685 -1.07095 144 141 120
0.10173 0.42646 -1.07086 141 144 125
0.09813 0.42644 -1.07066 145 142 122
0.09773 0.42604 -1.07067 145 142 125
0.09853 0.42644 -1.07061 141 134 108
0.09895 0.42644 -1.07367 113 99 82
0.09933 0.42644 -1.07113 84 60 52
0.09973 0.42605 -1.07104 88 49 46
0.10013 0.42645 -1.07103 97 61 58
0.10054 0.42645 -1.07147 123 94 87
0.10094 0.42645 -1.07131 142 131 113
0.10134 0.42645 -1.07106 142 141 122
0.10174 0.42606 -1.07097 141 143 125
0.11251 0.42652 -1.06930 145 147 126
0.09813 0.42604 -1.07098 143 143 121
0.09773 0.42564 -1.07099 142 142 126
0.09853 0.42604 -1.07093 136 135 107
0.09895 0.42603 -1.07369 111 99 78
0.09933 0.42604 -1.07127 84 58 48
0.09973 0.42564 -1.07118 88 49 49
0.10013 0.42605 -1.07117 99 58 58
0.10054 0.42605 -1.07161 122 94 89
0.10094 0.42605 -1.07146 142 132 115
0.10134 0.42565 -1.07138 143 141 125
0.10134 0.42605 -1.07119 143 142 123
0.10174 0.42566 -1.07111 142 141 123
0.11258 0.42612 -1.06996 147 149 127
0.11288 0.42612 -1.06891 119 121 101
0.11328 0.42652 -1.06890 102 103 91
0.11326 0.42613 -1.06869 111 113 98
0.11366 0.42653 -1.06868 117 118 107
0.11372 0.42613 -1.06922 125 127 113
0.11412 0.42653 -1.06921 145 147 131
0.11412 0.42613 -1.06917 148 150 133
0.09895 0.42562 -1.07390 109 96 81
0.09933 0.42564 -1.07140 84 55 48
0.10014 0.42565 -1.07131 97 59 59
0.10054 0.42565 -1.07165 121 93 87
0.10094 0.42565 -1.07158 143 133 118
0.10135 0.42525 -1.07149 143 142 124
0.11222 0.42571 -1.07043 163 166 141
0.11263 0.42531 -1.07035 156 160 128
0.11263 0.42571 -1.07040 150 153 126
0.11303 0.42532 -1.07032 148 153 127
0.11298 0.42572 -1.06984 135 137 114
0.11338 0.42532 -1.06975 152 157 134
0.11339 0.42572 -1.06992 134 136 115
0.11385 0.42572 -1.07037 141 144 124
0.11430 0.42572 -1.07077 152 154 131
0.11471 0.42613 -1.07075 158 161 137
0.11471 0.42572 -1.07072 156 158 131
0.09895 0.42522 -1.07394 109 93 82
0.09933 0.42524 -1.07143 84 53 49
0.09973 0.42484 -1.07134 86 50 45
0.09973 0.42524 -1.07138 87 50 47
0.10013 0.42525 -1.07133 97 61 57
0.10054 0.42524 -1.07162 122 95 85
0.10095 0.42525 -1.07167 144 133 117
0.11391 0.42531 -1.07093 155 158 136
0.11351 0.42491 -1.07095 157 163 140
0.11391 0.42491 -1.07090 157 160 138
0.11432 0.42491 -1.07085 147 151 126
0.11435 0.42531 -1.07118 153 156 131
0.11476 0.42491 -1.07109 132 136 110
0.09895 0.42481 -1.07394 108 92 79
0.09933 0.42484 -1.07146 85 55 50
0.09973 0.42444 -1.07137 87 49 46
0.10013 0.42484 -1.07136 98 63 54
0.10054 0.42484 -1.07162 122 96 83
0.10095 0.42484 -1.07177 142 132 115
0.10135 0.42444 -1.07168 137 138 122
0.10134 0.42485 -1.07153 142 141 124
0.10175 0.42525 -1.07152 143 141 121
0.10175 0.42485 -1.07148 141 139 119
0.10175 0.42445 -1.07145 137 137 120
0.09894 0.42440 -1.07394 105 92 80
0.09933 0.42444 -1.07149 83 54 52
0.10013 0.42444 -1.07140 98 62 56
0.10054 0.42444 -1.07165 121 94 84
0.10095 0.42444 -1.07181 140 130 115
0.10135 0.42404 -1.07173 134 138 122
0.09894 0.42399 -1.07380 103 91 78
0.09933 0.42403 -1.07157 80 55 54
0.09973 0.42404 -1.07152 84 49 52
0.10013 0.42404 -1.07147 98 62 64
0.10054 0.42404 -1.07177 120 94 87
0.10095 0.42403 -1.07194 137 131 115
0.09853 0.42361 -1.07255 131 126 108
0.09894 0.42359 -1.07354 101 89 76
0.09933 0.42363 -1.07175 79 52 55
0.09973 0.42363 -1.07170 85 48 56
0.10013 0.42363 -1.07165 96 60 66
0.10054 0.42363 -1.07200 119 95 89
0.10095 0.42363 -1.07223 135 127 112
0.10135 0.42363 -1.07202 135 136 121
0.10176 0.42404 -1.07201 135 137 119
0.10176 0.42363 -1.07198 135 136 120
0.10175 0.42323 -1.07194 134 135 118
0.09852 0.42320 -1.07270 128 123 109
0.09893 0.42319 -1.07320 100 86 78
0.09933 0.42322 -1.07185 79 50 49
0.09973 0.42323 -1.07180 87 48 51
0.10013 0.42323 -1.07175 96 58 60
0.10055 0.42322 -1.07232 121 94 88
0.10096 0.42321 -1.07250 137 127 112
0.10136 0.42322 -1.07231 135 135 118
0.10176 0.42282 -1.07223 133 136 116
0.09852 0.42280 -1.07262 125 120 104
0.09893 0.42280 -1.07283 99 84 80
0.09933 0.42281 -1.07244 78 50 51
0.09974 0.42281 -1.07241 87 48 47
0.10014 0.42281 -1.07236 96 58 56
0.10055 0.42281 -1.07240 121 92 86
0.11192 0.42287 -1.07142 154 158 132
0.11152 0.42327 -1.07151 151 154 131
0.11152 0.42286 -1.07147 149 153 128
0.11151 0.42246 -1.07144 148 153 126
0.11233 0.42327 -1.07141 160 164 136
0.11230 0.42288 -1.07105 158 161 136
0.11270 0.42248 -1.07096 146 149 129
0.11268 0.42289 -1.07074 148 151 130
0.11308 0.42329 -1.07073 150 153 132
0.11308 0.42289 -1.07069 147 151 129
0.11308 0.42248 -1.07066 145 148 130
0.07567 0.42265 -1.06179 143 137 118
0.07603 0.42302 -1.06178 149 143 126
0.07603 0.42228 -1.06172 147 141 122
0.09893 0.42240 -1.07254 97 83 73
0.09933 0.42240 -1.07266 79 49 48
0.09974 0.42240 -1.07261 84 48 46
0.10014 0.42240 -1.07259 95 58 53
0.10056 0.42239 -1.07309 119 92 83
0.11195 0.42245 -1.07171 153 158 130
0.11154 0.42204 -1.07173 148 153 124
0.11195 0.42205 -1.07168 152 157 130
0.11234 0.42246 -1.07147 156 160 135
0.11274 0.42206 -1.07138 145 148 127
0.07568 0.42228 -1.06168 142 137 117
0.09892 0.42200 -1.07217 96 80 63
0.09974 0.42199 -1.07281 84 48 41
0.10014 0.42199 -1.07278 95 58 51
0.11239 0.42204 -1.07198 154 158 133
0.11198 0.42163 -1.07199 152 155 129
0.11280 0.42163 -1.07189 142 146 123
0.07590 0.42189 -1.06248 147 140 122
0.07627 0.42226 -1.06247 146 142 127
0.07627 0.42189 -1.06244 147 142 125
0.07627 0.42152 -1.06241 148 142 120
0.09892 0.42159 -1.07252 92 74 55
0.09933 0.42158 -1.07270 78 47 37
0.09973 0.42158 -1.07266 85 45 40
0.10014 0.42158 -1.07287 95 57 51
0.09933 0.42117 -1.07278 78 43 33
0.09973 0.42077 -1.07270 85 42 39
0.09973 0.42117 -1.07276 85 42 38
0.10015 0.42116 -1.07325 93 53 48
0.10055 0.42075 -1.07317 100 74 62
0.10840 0.42115 -1.07365 135 139 115
0.10881 0.42157 -1.07364 140 142 122
0.07573 0.42111 -1.06343 145 139 119
0.07611 0.42074 -1.06335 146 143 131
0.10014 0.42076 -1.07306 90 51 47
0.10840 0.42074 -1.07372 126 127 104
0.07572 0.42073 -1.06350 143 139 124
0.07609 0.42036 -1.06342 145 143 129
0.10014 0.42035 -1.07312 89 51 44
0.09973 0.41994 -1.07314 83 43 40
0.10841 0.42032 -1.07385 115 111 94
0.10886 0.42030 -1.07427 118 113 96
0.07569 0.42035 -1.06361 144 140 127
0.07606 0.41998 -1.06354 145 142 125
0.10842 0.41990 -1.07394 104 99 87
0.10887 0.41989 -1.07434 105 100 86
0.07573 0.41999 -1.06332 144 139 126
0.07610 0.41962 -1.06324 146 141 123
0.10797 0.41951 -1.07346 97 92 72
0.10756 0.41910 -1.07348 97 93 67
0.10797 0.41910 -1.07343 98 94 66
0.10838 0.41911 -1.07338 97 92 69
0.10843 0.41948 -1.07409 97 93 76
0.10884 0.41907 -1.07400 99 91 74
0.10888 0.41947 -1.07446 97 93 79
0.10929 0.41905 -1.07437 100 93 73
0.10098 0.41907 -1.07421 95 83 60
0.10139 0.41907 -1.07416 92 85 58
0.10139 0.41866 -1.07412 95 87 60
0.07587 0.41930 -1.06233 143 138 123
0.07624 0.41893 -1.06225 144 141 125
0.10056 0.41868 -1.07362 97 72 55
0.10014 0.41827 -1.07363 90 49 44
0.10097 0.41866 -1.07399 97 85 60
0.09849 0.41847 -1.07010 98 81 56
0.09809 0.41887 -1.07019 101 91 58
0.09809 0.41847 -1.07015 103 91 60
0.09849 0.41807 -1.07007 98 81 57
0.09889 0.41887 -1.07009 81 54 38
0.09889 0.41847 -1.07005 84 54 44
0.10056 0.41827 -1.07376 98 73 59
0.10014 0.41786 -1.07377 86 49 42
0.10097 0.41826 -1.07382 98 87 67
0.10138 0.41786 -1.07374 100 93 73
0.10138 0.41825 -1.07397 97 90 70
0.10180 0.41867 -1.07396 94 87 61
0.10179 0.41826 -1.07393 98 91 66
0.10179 0.41785 -1.07389 101 93 65
0.07630 0.41859 -1.06182 145 137 124
0.07667 0.41896 -1.06181 146 142 130
0.07667 0.41859 -1.06178 146 138 126
0.07667 0.41822 -1.06175 146 139 119
0.09809 0.41806 -1.07026 103 90 59
0.09769 0.41846 -1.07035 104 92 62
0.09769 0.41806 -1.07031 105 93 62
0.09769 0.41766 -1.07028 105 95 61
0.10056 0.41783 -1.07424 98 73 62
0.10015 0.41741 -1.07425 85 52 44
0.10097 0.41785 -1.07391 101 89 73
0.10138 0.41744 -1.07382 103 94 71
0.09809 0.41763 -1.07078 102 91 61
0.09769 0.41723 -1.07079 104 96 57
0.10056 0.41743 -1.07397 99 76 63
0.10014 0.41702 -1.07398 87 53 45
0.10056 0.41702 -1.07393 102 77 61
0.10096 0.41745 -1.07365 105 92 72
0.10137 0.41704 -1.07356 105 94 68
0.09809 0.41719 -1.07144 101 91 61
0.09768 0.41678 -1.07145 101 96 61
0.10096 0.41706 -1.07336 106 93 65
0.10095 0.41665 -1.07332 106 92 60
0.10136 0.41665 -1.07327 104 95 64
0.09809 0.41676 -1.07176 98 91 64
0.09768 0.41635 -1.07178 99 94 68
0.10055 0.41664 -1.07343 103 76 58
0.09808 0.41634 -1.07190 95 92 68
0.09768 0.41594 -1.07191 98 92 71
0.09849 0.41637 -1.07157 92 83 64
0.10053 0.41627 -1.07283 101 75 57
0.10011 0.41594 -1.07175 86 52 40
0.10051 0.41595 -1.07164 100 77 58
0.09848 0.41560 -1.07103 84 71 57
0.09808 0.41519 -1.07104 92 77 59
0.09889 0.41558 -1.07122 74 51 43
0.09929 0.41557 -1.07132 72 39 34
0.09969 0.41557 -1.07133 77 42 37
0.10010 0.41558 -1.07119 85 53 44
0.10050 0.41558 -1.07115 102 77 63
0.10090 0.41518 -1.07106 110 87 73
0.09848 0.41523 -1.07050 83 68 52
0.09807 0.41483 -1.07051 94 76 57
0.09888 0.41521 -1.07075 74 53 44
0.09929 0.41518 -1.07109 74 43 36
0.09969 0.41521 -1.07075 79 49 40
0.10009 0.41481 -1.07066 96 68 60
0.09847 0.41491 -1.06950 93 74 55
0.09807 0.41451 -1.06951 94 77 62
0.09847 0.41451 -1.06946 98 79 60
0.09887 0.41489 -1.06970 87 66 50
0.09887 0.41454 -1.06917 97 78 59
0.09847 0.41414 -1.06918 90 77 57
0.09886 0.41414 -1.06913 92 78 57
0.09926 0.41414 -1.06908 95 78 64
