ply
format ascii 1.0
element face 0
property list uchar int vertex_indices
element vertex 832
property float x
property float y
property float z
property uchar diffuse_red
property uchar diffuse_green
property uchar diffuse_blue
end_header
0.09849 0.46404 -1.08207 169 159 158
0.09846 0.46368 -1.08203 169 161 154
0.09882 0.46366 -1.08194 165 155 149
0.09925 0.46417 -1.08284 164 150 155
0.09923 0.46381 -1.08280 164 150 150
0.09961 0.46414 -1.08265 158 144 147
0.09994 0.46376 -1.08252 155 137 141
0.09840 0.46318 -1.08117 168 162 155
0.09873 0.46281 -1.08104 164 154 147
0.09831 0.46234 -1.08031 168 161 150
0.09827 0.46195 -1.08008 168 161 149
0.09789 0.46161 -1.08013 173 164 153
0.09825 0.46159 -1.08004 169 161 152
0.09860 0.46158 -1.07995 164 156 149
0.09861 0.46132 -1.08059 164 156 146
0.09826 0.46134 -1.08068 170 159 150
0.09894 0.46095 -1.08045 158 147 142
0.10224 0.45821 -1.07337 171 157 150
0.10192 0.45857 -1.07349 169 150 154
0.10190 0.45823 -1.07345 167 149 144
0.10187 0.45788 -1.07341 164 151 144
0.10226 0.45856 -1.07341 173 159 160
0.10260 0.45854 -1.07332 177 167 167
0.10251 0.45810 -1.07254 177 166 159
0.10288 0.45843 -1.07250 184 174 172
0.10220 0.45785 -1.07317 169 156 148
0.10184 0.45752 -1.07321 164 150 148
0.10218 0.45750 -1.07313 168 155 148
0.10249 0.45775 -1.07245 176 162 156
0.09837 0.45834 -1.07944 163 153 143
0.09872 0.45831 -1.07928 159 146 134
0.09904 0.45794 -1.07914 155 141 132
0.10245 0.45739 -1.07227 176 161 155
0.10209 0.45706 -1.07232 170 155 145
0.09833 0.45796 -1.07925 163 154 146
0.09868 0.45793 -1.07908 158 147 136
0.10242 0.45703 -1.07212 176 162 150
0.10206 0.45670 -1.07216 170 154 149
0.10273 0.45668 -1.07199 184 169 163
0.09831 0.45760 -1.07921 161 154 145
0.09866 0.45758 -1.07903 155 147 137
0.09903 0.45760 -1.07926 152 140 132
0.09941 0.45795 -1.07922 152 137 134
0.09938 0.45759 -1.07917 150 136 133
0.09936 0.45723 -1.07913 150 137 134
0.09828 0.45723 -1.07906 162 155 142
0.09863 0.45720 -1.07887 157 149 139
0.09895 0.45683 -1.07874 153 143 129
0.09899 0.45723 -1.07909 153 143 135
0.09857 0.45678 -1.07829 156 148 136
0.09931 0.45682 -1.07865 150 138 129
0.09966 0.45681 -1.07856 149 131 127
0.09963 0.45645 -1.07852 151 133 127
0.09853 0.45639 -1.07794 158 145 143
0.09886 0.45602 -1.07781 155 144 131
0.09890 0.45642 -1.07822 156 143 136
0.09923 0.45605 -1.07809 151 136 128
0.09881 0.45562 -1.07732 152 143 134
0.09916 0.45562 -1.07735 150 132 131
0.09954 0.45596 -1.07731 150 132 129
0.09951 0.45560 -1.07726 150 129 130
0.09949 0.45525 -1.07722 147 132 123
0.09878 0.45525 -1.07714 152 144 134
0.09913 0.45525 -1.07714 148 136 125
0.09945 0.45488 -1.07700 147 136 126
0.09912 0.45492 -1.07734 148 137 127
0.09944 0.45455 -1.07721 146 133 130
0.09872 0.45454 -1.07701 152 142 133
0.09835 0.45420 -1.07705 158 147 144
0.09870 0.45418 -1.07696 152 142 133
0.09902 0.45382 -1.07683 149 136 128
0.09907 0.45421 -1.07731 149 136 131
0.09942 0.45420 -1.07722 146 133 128
0.09940 0.45384 -1.07718 146 132 130
0.09835 0.45389 -1.07748 158 147 145
0.09802 0.45426 -1.07761 162 155 149
0.09800 0.45390 -1.07756 163 155 154
0.09869 0.45386 -1.07722 153 140 134
0.09901 0.45349 -1.07709 149 137 129
0.09833 0.45354 -1.07749 155 148 139
0.09867 0.45351 -1.07727 150 141 132
0.09830 0.45319 -1.07749 156 151 141
0.09865 0.45316 -1.07730 150 144 135
0.09902 0.45319 -1.07762 147 137 127
0.09940 0.45353 -1.07757 146 132 128
0.09935 0.45282 -1.07748 145 131 118
0.09828 0.45283 -1.07746 157 149 142
0.09863 0.45282 -1.07734 150 142 132
0.09899 0.45282 -1.07744 147 136 125
0.09931 0.45245 -1.07731 145 131 122
0.09826 0.45249 -1.07750 155 148 144
0.09861 0.45247 -1.07739 152 140 132
0.09860 0.45214 -1.07762 152 140 134
0.09857 0.45178 -1.07758 150 140 134
0.09892 0.45177 -1.07749 147 135 128
0.09924 0.45171 -1.07684 143 130 120
0.09961 0.45205 -1.07680 146 127 126
0.09959 0.45169 -1.07675 143 129 118
0.09956 0.45134 -1.07671 141 129 122
0.10247 0.45132 -1.07284 173 161 155
0.10279 0.45096 -1.07271 176 168 157
0.09888 0.45139 -1.07715 147 138 132
0.09921 0.45102 -1.07702 142 131 128
0.10187 0.45110 -1.07426 158 146 135
0.10155 0.45147 -1.07439 154 141 132
0.10152 0.45112 -1.07435 154 140 138
0.10150 0.45077 -1.07431 156 140 129
0.10219 0.45107 -1.07397 164 154 140
0.10185 0.45076 -1.07430 159 144 135
0.10148 0.45042 -1.07434 156 138 129
0.10217 0.45072 -1.07394 163 153 144
0.10179 0.45038 -1.07387 159 144 140
0.10142 0.45004 -1.07391 155 138 132
0.10211 0.45002 -1.07374 165 154 147
0.10211 0.45035 -1.07349 163 154 147
0.10243 0.44998 -1.07336 171 163 152
0.09851 0.45008 -1.07861 150 142 127
0.09848 0.44972 -1.07847 151 142 136
0.09810 0.44937 -1.07851 159 148 143
0.09881 0.44968 -1.07798 146 136 127
0.09916 0.44966 -1.07789 144 130 123
0.09914 0.44931 -1.07785 144 129 119
0.09847 0.44938 -1.07876 153 141 134
0.09809 0.44903 -1.07880 157 149 135
0.09880 0.44933 -1.07815 149 134 123
0.09913 0.44896 -1.07802 143 132 117
0.09845 0.44902 -1.07872 151 143 128
0.09807 0.44867 -1.07877 156 150 139
0.09842 0.44866 -1.07868 152 144 131
0.09877 0.44897 -1.07800 147 138 122
0.09873 0.44860 -1.07781 146 137 124
0.09836 0.44826 -1.07786 152 144 129
0.09908 0.44858 -1.07753 141 130 116
0.09945 0.44892 -1.07749 141 128 117
0.09943 0.44856 -1.07744 142 127 113
0.09940 0.44820 -1.07740 141 128 114
0.09870 0.44824 -1.07767 147 137 121
0.09833 0.44789 -1.07772 150 142 127
0.09903 0.44787 -1.07754 144 131 119
0.09904 0.44821 -1.07730 143 131 118
0.09937 0.44784 -1.07717 141 128 117
0.09868 0.44788 -1.07773 147 136 122
0.09901 0.44751 -1.07759 142 130 119
0.09833 0.44756 -1.07829 150 141 125
0.09800 0.44794 -1.07842 157 149 136
0.09798 0.44758 -1.07838 157 148 132
0.09795 0.44722 -1.07833 157 147 134
0.09831 0.44721 -1.07835 150 142 125
0.09793 0.44686 -1.07839 155 149 135
0.09863 0.44717 -1.07764 145 135 117
0.09895 0.44713 -1.07696 142 128 116
0.09933 0.44747 -1.07691 141 126 119
0.09930 0.44711 -1.07687 142 123 115
0.09928 0.44676 -1.07682 140 125 111
0.09828 0.44685 -1.07820 149 143 124
0.09790 0.44650 -1.07825 154 150 137
0.09861 0.44681 -1.07755 144 137 118
0.09893 0.44677 -1.07700 141 130 114
0.09926 0.44640 -1.07686 139 128 115
0.09826 0.44649 -1.07825 148 144 128
0.09788 0.44614 -1.07830 155 151 137
0.09859 0.44612 -1.07812 144 135 119
0.09859 0.44646 -1.07770 144 138 121
0.09825 0.44614 -1.07846 148 143 127
0.09787 0.44579 -1.07850 152 150 133
0.09822 0.44578 -1.07841 148 143 127
0.09890 0.44607 -1.07723 141 129 115
0.09887 0.44571 -1.07719 140 129 120
0.09923 0.44570 -1.07710 137 124 117
0.09856 0.44575 -1.07793 143 136 123
0.09818 0.44541 -1.07798 148 142 132
0.09852 0.44539 -1.07774 144 136 128
0.09814 0.44504 -1.07779 147 142 136
0.09885 0.44501 -1.07761 141 128 121
0.09884 0.44535 -1.07703 139 128 122
0.09919 0.44534 -1.07694 139 123 123
0.09917 0.44498 -1.07690 139 126 117
0.09851 0.44503 -1.07793 144 133 125
0.09754 0.44479 -1.08094 159 159 147
0.09721 0.44518 -1.08107 160 159 152
0.09718 0.44481 -1.08103 162 161 150
0.09716 0.44444 -1.08098 162 159 143
0.09793 0.44515 -1.08089 151 150 145
0.09786 0.44475 -1.07985 153 153 142
0.09819 0.44472 -1.07916 149 146 134
0.09849 0.44468 -1.07793 144 137 124
0.09878 0.44463 -1.07677 140 130 118
0.09913 0.44462 -1.07668 137 127 115
0.09911 0.44426 -1.07664 137 126 114
0.09784 0.44439 -1.08001 151 152 136
0.09817 0.44436 -1.07924 147 144 132
0.09847 0.44432 -1.07799 143 136 125
0.09880 0.44394 -1.07785 139 127 117
0.09876 0.44428 -1.07682 138 128 117
0.09909 0.44391 -1.07668 137 122 114
0.10219 0.44400 -1.07049 166 159 143
0.09814 0.44400 -1.07919 147 143 124
0.09776 0.44365 -1.07924 154 151 129
0.09812 0.44364 -1.07915 149 143 124
0.09844 0.44396 -1.07800 143 135 121
0.10216 0.44366 -1.07049 166 158 146
0.09844 0.44361 -1.07836 145 133 122
0.09841 0.44325 -1.07832 144 133 125
0.09872 0.44357 -1.07691 140 126 116
0.09907 0.44355 -1.07683 137 122 113
0.09905 0.44320 -1.07678 138 123 114
0.10132 0.44340 -1.07334 149 135 125
0.10100 0.44377 -1.07347 144 129 126
0.10098 0.44342 -1.07343 145 129 119
0.10096 0.44307 -1.07338 144 130 125
0.10162 0.44338 -1.07260 150 140 129
0.09868 0.44321 -1.07664 139 126 118
0.09866 0.44285 -1.07660 138 128 116
0.09863 0.44249 -1.07642 137 128 112
0.09898 0.44248 -1.07633 135 122 106
0.09861 0.44213 -1.07654 137 130 117
0.09890 0.44211 -1.07525 135 124 113
0.09927 0.44245 -1.07521 136 120 107
0.09924 0.44210 -1.07516 135 121 112
0.09922 0.44174 -1.07512 136 120 112
0.09886 0.44175 -1.07509 136 124 117
0.09919 0.44139 -1.07496 133 119 111
0.09859 0.44142 -1.07693 137 129 120
0.09821 0.44108 -1.07697 142 136 123
0.09886 0.44140 -1.07541 133 122 114
0.09918 0.44103 -1.07528 133 120 106
0.09886 0.44105 -1.07578 132 121 107
0.09918 0.44068 -1.07565 133 119 108
0.09884 0.44069 -1.07595 133 122 110
0.09917 0.44032 -1.07581 131 118 113
0.13852 0.43531 -1.09161 172 176 158
0.13855 0.43574 -1.09167 172 180 161
0.13849 0.43488 -1.09156 170 173 152
0.13897 0.43572 -1.09156 172 180 161
0.13917 0.43527 -1.09223 171 176 159
0.13962 0.43568 -1.09218 172 176 157
0.13959 0.43525 -1.09212 170 175 157
0.14032 0.43529 -1.08885 168 176 157
0.13994 0.43573 -1.08901 168 179 161
0.13991 0.43531 -1.08896 169 176 161
0.14077 0.43570 -1.08880 170 173 156
0.14074 0.43528 -1.08875 169 173 154
0.13049 0.43537 -1.08680 169 177 160
0.13012 0.43580 -1.08696 173 178 163
0.13009 0.43539 -1.08691 170 179 162
0.13052 0.43578 -1.08686 174 177 163
0.13092 0.43577 -1.08675 173 178 157
0.13089 0.43536 -1.08670 170 176 153
0.13360 0.43530 -1.08420 170 174 155
0.13323 0.43572 -1.08435 173 177 160
0.13320 0.43532 -1.08430 170 173 155
0.13363 0.43570 -1.08425 171 177 161
0.13402 0.43569 -1.08415 171 176 159
0.13767 0.43495 -1.09039 170 173 152
0.13914 0.43484 -1.09218 169 172 151
0.13934 0.43485 -1.09138 170 173 153
0.13979 0.43526 -1.09133 172 174 159
0.13971 0.43488 -1.08975 169 172 154
0.13991 0.43489 -1.08898 167 173 155
0.14032 0.43487 -1.08888 166 173 154
0.14096 0.43483 -1.08943 164 170 153
0.14287 0.43470 -1.09106 157 161 142
0.14284 0.43427 -1.09101 145 151 129
0.11806 0.43564 -1.08336 177 180 163
0.11770 0.43604 -1.08351 178 181 159
0.11767 0.43565 -1.08346 177 180 163
0.11808 0.43603 -1.08341 178 182 162
0.11803 0.43525 -1.08331 172 176 155
0.11847 0.43601 -1.08331 179 182 164
0.11844 0.43562 -1.08325 176 179 161
0.11885 0.43600 -1.08320 178 182 163
0.11882 0.43561 -1.08315 176 179 161
0.11988 0.43552 -1.08444 174 180 162
0.11952 0.43593 -1.08459 176 180 160
0.11950 0.43554 -1.08454 175 179 163
0.11991 0.43592 -1.08449 176 181 160
0.12030 0.43590 -1.08439 176 182 158
0.12044 0.43548 -1.08514 174 179 159
0.12085 0.43586 -1.08509 177 180 159
0.12097 0.43543 -1.08576 175 177 157
0.12139 0.43582 -1.08571 177 179 160
0.12137 0.43542 -1.08566 174 177 157
0.12187 0.43538 -1.08611 174 177 159
0.12190 0.43578 -1.08616 177 179 160
0.12230 0.43577 -1.08606 176 180 161
0.12219 0.43538 -1.08567 174 177 163
0.12262 0.43576 -1.08562 175 180 161
0.12259 0.43537 -1.08557 173 176 163
0.12281 0.43543 -1.08286 175 178 160
0.12246 0.43584 -1.08301 176 180 160
0.12243 0.43545 -1.08296 174 177 160
0.12284 0.43583 -1.08291 176 180 159
0.12279 0.43504 -1.08281 169 172 150
0.12323 0.43581 -1.08282 176 179 159
0.12307 0.43544 -1.08221 174 177 158
0.12349 0.43582 -1.08216 176 180 160
0.12329 0.43545 -1.08137 173 177 158
0.12370 0.43583 -1.08133 175 182 163
0.12356 0.43546 -1.08081 173 177 161
0.12397 0.43583 -1.08076 173 181 164
0.12410 0.43542 -1.08137 171 178 160
0.12451 0.43579 -1.08132 175 180 161
0.12492 0.43533 -1.08312 173 178 157
0.12534 0.43571 -1.08307 176 179 161
0.12654 0.43516 -1.08638 173 175 161
0.12696 0.43555 -1.08633 176 178 166
0.12727 0.43509 -1.08765 171 175 158
0.12770 0.43548 -1.08759 173 178 162
0.12792 0.43503 -1.08852 169 176 156
0.12835 0.43543 -1.08847 172 177 158
0.12842 0.43500 -1.08881 169 177 156
0.12886 0.43540 -1.08876 173 177 158
0.12884 0.43498 -1.08877 169 176 157
0.12928 0.43538 -1.08872 174 178 158
0.12928 0.43496 -1.08877 169 175 158
0.12971 0.43536 -1.08872 172 177 157
0.12968 0.43495 -1.08867 169 176 157
0.13017 0.43497 -1.08726 168 177 154
0.13046 0.43497 -1.08675 167 175 152
0.13080 0.43496 -1.08642 168 173 152
0.13123 0.43535 -1.08637 171 176 151
0.13104 0.43497 -1.08575 169 173 151
0.13147 0.43536 -1.08570 172 176 154
0.13133 0.43497 -1.08526 169 172 152
0.13176 0.43536 -1.08521 172 175 156
0.13168 0.43496 -1.08496 168 172 154
0.13210 0.43535 -1.08491 172 175 156
0.13200 0.43496 -1.08462 168 171 153
0.13243 0.43534 -1.08457 171 174 154
0.13238 0.43494 -1.08445 167 170 151
0.13281 0.43533 -1.08440 171 174 155
0.13275 0.43493 -1.08425 167 170 152
0.13316 0.43492 -1.08421 165 169 151
0.13357 0.43490 -1.08415 163 170 149
0.13416 0.43485 -1.08470 162 168 150
0.13477 0.43481 -1.08529 163 168 151
0.13751 0.43455 -1.08990 163 166 144
0.13824 0.43449 -1.09080 163 166 143
0.13914 0.43445 -1.09080 160 163 144
0.13937 0.43446 -1.09013 159 162 143
0.13961 0.43446 -1.08948 159 162 141
0.13990 0.43446 -1.08899 157 161 139
0.14033 0.43445 -1.08896 157 161 144
0.14096 0.43440 -1.08947 154 158 142
0.14148 0.43437 -1.08969 151 156 135
0.14416 0.43432 -1.08706 121 124 101
0.14454 0.43389 -1.08690 110 112 93
0.14473 0.43432 -1.08617 115 115 95
0.14511 0.43389 -1.08601 106 110 84
0.14496 0.43433 -1.08558 109 110 91
0.14533 0.43390 -1.08543 107 110 83
0.11713 0.43524 -1.08502 171 174 155
0.11755 0.43562 -1.08497 176 179 161
0.11748 0.43523 -1.08472 173 175 158
0.11776 0.43524 -1.08405 174 177 158
0.11848 0.43522 -1.08356 171 175 153
0.11891 0.43520 -1.08368 171 175 157
0.11935 0.43517 -1.08389 169 175 157
0.11989 0.43512 -1.08454 168 175 152
0.12042 0.43508 -1.08516 169 174 149
0.12094 0.43504 -1.08570 169 172 150
0.12142 0.43500 -1.08602 169 172 151
0.12186 0.43498 -1.08611 169 172 151
0.12217 0.43498 -1.08565 170 172 153
0.12242 0.43499 -1.08487 169 172 154
0.12268 0.43500 -1.08419 168 173 152
0.12309 0.43504 -1.08237 167 172 149
0.12307 0.43465 -1.08232 149 155 132
0.12334 0.43505 -1.08166 166 171 149
0.12369 0.43465 -1.08151 147 152 132
0.12376 0.43503 -1.08171 166 170 150
0.12422 0.43500 -1.08197 166 170 150
0.12501 0.43491 -1.08357 166 170 149
0.12653 0.43475 -1.08639 165 168 151
0.12728 0.43467 -1.08772 164 167 148
0.12786 0.43463 -1.08837 164 167 146
0.12833 0.43460 -1.08851 164 168 149
0.12874 0.43458 -1.08842 162 169 151
0.12919 0.43456 -1.08849 161 168 151
0.12953 0.43455 -1.08817 160 168 150
0.12984 0.43456 -1.08770 159 167 147
0.13014 0.43456 -1.08719 158 165 143
0.13044 0.43456 -1.08671 158 163 140
0.13079 0.43455 -1.08643 158 161 142
0.13103 0.43456 -1.08577 157 160 143
0.13132 0.43456 -1.08526 156 159 141
0.13171 0.43455 -1.08513 153 158 138
0.13215 0.43453 -1.08519 152 156 136
0.13252 0.43411 -1.08504 127 130 110
0.13249 0.43452 -1.08487 152 155 135
0.13286 0.43410 -1.08472 126 128 107
0.13295 0.43449 -1.08500 150 153 134
0.13330 0.43449 -1.08473 150 153 134
0.13368 0.43447 -1.08457 147 151 134
0.13403 0.43447 -1.08430 146 150 134
0.13466 0.43441 -1.08496 144 151 133
0.13759 0.43411 -1.09022 143 145 128
0.13826 0.43406 -1.09092 142 145 126
0.13881 0.43402 -1.09123 140 143 124
0.13934 0.43403 -1.09007 139 140 125
0.13965 0.43403 -1.08964 137 138 124
0.14002 0.43402 -1.08939 137 138 122
0.14040 0.43401 -1.08919 134 137 123
0.14085 0.43399 -1.08920 132 137 121
0.14142 0.43395 -1.08955 129 134 114
0.14181 0.43394 -1.08936 129 133 111
0.14211 0.43394 -1.08892 127 130 108
0.14283 0.43396 -1.08713 119 120 105
0.14321 0.43353 -1.08697 114 113 98
0.14325 0.43395 -1.08705 116 117 103
0.14363 0.43351 -1.08690 115 112 96
0.14358 0.43394 -1.08672 114 114 99
0.14396 0.43351 -1.08656 112 111 95
0.14399 0.43392 -1.08663 113 114 97
0.14437 0.43349 -1.08648 109 111 95
0.11718 0.43482 -1.08542 164 167 150
0.11787 0.43481 -1.08475 165 167 148
0.11820 0.43481 -1.08431 163 167 145
0.11858 0.43480 -1.08421 162 166 144
0.11897 0.43478 -1.08412 160 163 144
0.11938 0.43476 -1.08411 159 163 144
0.11989 0.43472 -1.08466 158 162 141
0.12042 0.43468 -1.08523 158 161 138
0.12092 0.43464 -1.08568 157 160 137
0.12140 0.43460 -1.08600 155 159 136
0.12183 0.43458 -1.08609 154 158 133
0.12217 0.43458 -1.08571 153 157 131
0.12242 0.43459 -1.08494 153 157 133
0.12270 0.43460 -1.08436 151 156 133
0.12283 0.43463 -1.08307 151 155 133
0.12509 0.43450 -1.08397 147 150 134
0.12568 0.43444 -1.08472 145 148 133
0.12647 0.43435 -1.08623 145 148 130
0.12719 0.43428 -1.08744 144 148 128
0.12785 0.43421 -1.08838 144 147 129
0.12831 0.43419 -1.08848 144 147 131
0.12872 0.43417 -1.08843 142 147 130
0.12911 0.43416 -1.08826 140 145 125
0.12944 0.43415 -1.08788 139 144 123
0.12977 0.43415 -1.08749 137 143 125
0.13009 0.43415 -1.08707 136 140 124
0.13044 0.43414 -1.08678 135 138 120
0.13087 0.43412 -1.08679 133 136 118
0.13130 0.43410 -1.08679 132 135 116
0.13194 0.43405 -1.08752 131 133 116
0.13265 0.43398 -1.08852 128 132 113
0.13303 0.43355 -1.08836 120 122 101
0.13328 0.43393 -1.08919 128 133 112
0.13455 0.43387 -1.08903 125 127 109
0.13411 0.43347 -1.08908 120 120 95
0.13521 0.43381 -1.08977 122 125 107
0.13536 0.43384 -1.08879 123 125 107
0.13574 0.43341 -1.08863 119 116 92
0.13653 0.43375 -1.08972 121 122 106
0.13691 0.43332 -1.08956 119 118 94
0.13719 0.43370 -1.09040 122 123 105
0.13776 0.43366 -1.09078 119 122 102
0.13832 0.43362 -1.09115 119 122 103
0.13871 0.43318 -1.09099 119 121 104
0.13880 0.43359 -1.09125 119 122 105
0.13919 0.43315 -1.09109 117 118 103
0.13907 0.43360 -1.09068 118 119 106
0.13946 0.43316 -1.09052 121 117 100
0.13934 0.43361 -1.09011 123 119 108
0.13973 0.43317 -1.08995 121 118 96
0.13964 0.43361 -1.08963 121 119 104
0.14002 0.43317 -1.08947 121 121 96
0.14002 0.43360 -1.08942 121 119 101
0.14040 0.43316 -1.08927 120 121 96
0.14041 0.43358 -1.08926 121 120 101
0.14080 0.43315 -1.08910 120 121 103
0.14080 0.43357 -1.08907 120 122 105
0.14118 0.43313 -1.08891 120 120 102
0.14125 0.43355 -1.08906 119 121 100
0.14163 0.43311 -1.08891 120 120 98
0.14163 0.43354 -1.08886 118 121 95
0.14201 0.43310 -1.08870 121 117 97
0.14189 0.43355 -1.08833 120 118 95
0.14228 0.43311 -1.08818 121 118 98
0.14218 0.43355 -1.08788 119 115 98
0.14257 0.43311 -1.08772 118 117 99
0.09843 0.43575 -1.07415 128 119 101
0.10111 0.43569 -1.07211 137 125 109
0.10079 0.43606 -1.07224 134 122 103
0.10077 0.43571 -1.07219 134 122 106
0.10074 0.43536 -1.07215 134 121 105
0.10114 0.43604 -1.07215 138 126 108
0.10140 0.43571 -1.07126 143 132 113
0.11704 0.43446 -1.08474 146 150 132
0.11663 0.43408 -1.08479 128 130 114
0.11745 0.43444 -1.08475 145 148 127
0.11794 0.43439 -1.08523 144 147 125
0.11828 0.43439 -1.08488 142 146 126
0.11862 0.43439 -1.08449 141 145 126
0.11903 0.43437 -1.08454 139 142 124
0.11947 0.43434 -1.08470 138 141 122
0.12000 0.43429 -1.08527 136 138 120
0.12050 0.43425 -1.08573 134 135 119
0.12099 0.43422 -1.08609 132 134 115
0.12144 0.43419 -1.08630 130 132 110
0.12189 0.43416 -1.08643 130 132 107
0.12229 0.43414 -1.08638 128 131 107
0.12273 0.43412 -1.08645 127 130 109
0.12309 0.43370 -1.08630 116 118 98
0.12592 0.43399 -1.08578 121 124 111
0.12629 0.43357 -1.08563 118 117 104
0.12658 0.43392 -1.08675 121 122 107
0.12695 0.43350 -1.08660 119 117 105
0.12728 0.43385 -1.08787 121 122 107
0.12765 0.43342 -1.08771 118 118 102
0.12785 0.43380 -1.08846 120 121 106
0.12823 0.43337 -1.08831 117 119 99
0.12832 0.43377 -1.08859 120 122 105
0.12869 0.43334 -1.08843 118 119 95
0.12876 0.43375 -1.08862 119 122 102
0.12913 0.43332 -1.08847 118 120 93
0.12913 0.43374 -1.08840 119 121 100
0.12951 0.43331 -1.08824 119 120 94
0.12946 0.43373 -1.08802 119 120 99
0.12984 0.43331 -1.08787 121 120 98
0.12979 0.43373 -1.08763 120 121 104
0.13017 0.43331 -1.08748 121 119 97
0.13012 0.43373 -1.08724 119 120 104
0.13049 0.43331 -1.08708 121 119 97
0.13048 0.43372 -1.08698 119 121 101
0.13085 0.43330 -1.08682 120 119 94
0.13090 0.43370 -1.08697 118 121 98
0.13128 0.43328 -1.08681 118 118 94
0.13138 0.43367 -1.08714 119 120 98
0.13176 0.43325 -1.08699 119 119 96
0.13199 0.43362 -1.08775 119 119 100
0.13236 0.43319 -1.08760 119 121 99
0.13272 0.43355 -1.08882 119 120 101
0.13310 0.43312 -1.08867 121 121 100
0.13475 0.43341 -1.08976 119 120 98
0.13431 0.43301 -1.08981 122 120 95
0.13472 0.43300 -1.08971 121 120 94
0.13514 0.43298 -1.08960 121 120 93
0.13512 0.43341 -1.08949 117 119 97
0.13550 0.43297 -1.08933 122 117 91
0.13528 0.43343 -1.08857 118 117 92
0.13566 0.43300 -1.08841 121 117 92
0.13755 0.43326 -1.09016 117 118 94
0.13710 0.43286 -1.09021 120 118 95
0.13752 0.43284 -1.09010 118 118 92
0.13793 0.43283 -1.09000 119 120 95
0.13826 0.43320 -1.09099 119 121 100
0.13865 0.43276 -1.09083 120 120 100
0.09839 0.43541 -1.07375 128 120 105
0.09868 0.43544 -1.07269 125 115 99
0.09905 0.43577 -1.07265 126 113 95
0.09902 0.43542 -1.07261 126 114 99
0.09900 0.43507 -1.07256 126 113 103
0.10109 0.43534 -1.07213 136 124 110
0.10072 0.43500 -1.07217 134 120 110
0.10107 0.43499 -1.07208 137 124 119
0.10141 0.43498 -1.07199 140 131 125
0.10137 0.43537 -1.07117 141 130 118
0.11706 0.43405 -1.08496 124 125 108
0.11664 0.43367 -1.08500 123 123 102
0.11703 0.43366 -1.08491 121 121 99
0.11742 0.43364 -1.08481 120 119 97
0.11760 0.43399 -1.08568 123 124 104
0.11796 0.43358 -1.08554 121 120 95
0.11807 0.43396 -1.08604 123 124 103
0.11844 0.43354 -1.08589 121 121 96
0.11838 0.43397 -1.08547 121 123 102
0.11874 0.43355 -1.08532 120 120 98
0.11871 0.43396 -1.08507 120 122 103
0.11907 0.43355 -1.08492 119 120 98
0.11906 0.43396 -1.08478 119 121 102
0.11942 0.43355 -1.08463 118 119 95
0.11949 0.43393 -1.08486 118 120 100
0.11985 0.43352 -1.08472 120 117 94
0.11994 0.43390 -1.08507 118 117 100
0.12030 0.43349 -1.08492 121 117 95
0.12043 0.43386 -1.08548 118 115 101
0.12079 0.43345 -1.08533 122 117 97
0.12093 0.43382 -1.08588 118 116 97
0.12129 0.43341 -1.08573 122 117 97
0.12141 0.43379 -1.08622 119 117 93
0.12178 0.43337 -1.08607 121 116 91
0.12186 0.43376 -1.08638 119 116 90
0.12223 0.43334 -1.08623 118 117 87
0.12227 0.43374 -1.08633 117 117 90
0.12263 0.43332 -1.08618 116 119 90
0.12270 0.43372 -1.08640 115 118 95
0.12306 0.43330 -1.08625 116 118 96
0.12570 0.43363 -1.08492 118 118 102
0.12567 0.43323 -1.08487 121 116 100
0.12607 0.43321 -1.08477 122 116 100
0.14493 0.43270 -1.08444 109 111 87
0.14456 0.43313 -1.08460 106 109 87
0.14453 0.43272 -1.08455 109 112 89
0.14496 0.43312 -1.08450 106 109 83
0.14491 0.43229 -1.08439 113 116 99
0.14537 0.43310 -1.08439 107 109 87
0.14553 0.43266 -1.08485 110 112 88
0.14597 0.43306 -1.08480 106 108 89
0.14619 0.43260 -1.08541 109 111 94
0.14663 0.43300 -1.08536 106 109 88
0.14660 0.43259 -1.08531 110 112 96
0.14657 0.43217 -1.08526 114 116 98
0.09836 0.43506 -1.07373 128 120 110
0.09868 0.43469 -1.07360 126 115 104
0.09865 0.43509 -1.07263 126 115 104
0.09897 0.43473 -1.07250 126 112 101
0.14291 0.43236 -1.08500 119 120 96
0.14254 0.43279 -1.08516 116 118 97
0.14251 0.43238 -1.08510 118 121 98
0.14248 0.43197 -1.08505 119 122 102
0.14335 0.43276 -1.08495 115 111 88
0.14329 0.43194 -1.08485 118 121 97
0.14315 0.43238 -1.08444 116 115 93
0.14359 0.43277 -1.08439 115 112 92
0.14615 0.43219 -1.08532 113 116 98
0.14653 0.43176 -1.08517 116 119 100
0.07417 0.43600 -1.06492 140 132 130
0.07389 0.43633 -1.06503 138 128 125
0.07386 0.43601 -1.06499 138 128 125
0.07419 0.43631 -1.06496 139 132 130
0.07450 0.43630 -1.06488 144 135 127
0.07448 0.43599 -1.06484 145 135 131
0.07372 0.43566 -1.06579 138 128 118
0.07343 0.43599 -1.06591 135 125 118
0.07341 0.43568 -1.06587 134 125 115
0.07339 0.43536 -1.06583 134 123 111
0.07370 0.43535 -1.06575 138 126 113
0.07403 0.43565 -1.06574 139 131 122
0.07432 0.43563 -1.06577 143 134 126
0.07465 0.43594 -1.06574 147 136 127
0.07463 0.43562 -1.06570 146 138 127
0.07461 0.43531 -1.06566 144 139 129
0.07399 0.43533 -1.06577 140 130 115
0.07366 0.43503 -1.06581 137 126 114
0.07397 0.43502 -1.06573 139 131 116
0.07428 0.43501 -1.06565 142 135 121
0.07430 0.43532 -1.06572 143 135 122
0.07287 0.43238 -1.06758 130 122 105
0.07258 0.43271 -1.06770 130 120 109
0.07256 0.43239 -1.06766 128 119 103
0.07253 0.43207 -1.06762 127 118 102
0.07321 0.43269 -1.06754 133 127 120
0.07318 0.43237 -1.06755 134 128 113
0.07352 0.43267 -1.06751 135 128 122
0.07349 0.43235 -1.06747 134 128 116
0.07347 0.43203 -1.06743 136 126 116
0.07287 0.43207 -1.06740 131 122 101
0.07253 0.43176 -1.06744 127 119 105
0.07285 0.43175 -1.06736 131 121 101
0.07324 0.43209 -1.06693 135 126 109
0.07322 0.43177 -1.06688 135 124 107
0.07288 0.43146 -1.06692 129 121 102
0.07320 0.43145 -1.06684 133 124 103
0.07351 0.43144 -1.06676 136 125 106
0.10132 0.42904 -1.07090 136 127 115
0.10163 0.42868 -1.07077 143 135 124
0.10060 0.42872 -1.07099 126 113 105
0.10028 0.42909 -1.07112 124 110 104
0.10026 0.42874 -1.07108 124 111 104
0.10023 0.42839 -1.07104 123 111 101
0.10129 0.42869 -1.07088 138 126 118
0.10161 0.42833 -1.07075 142 135 120
0.11241 0.42729 -1.06705 125 127 109
0.11278 0.42763 -1.06700 125 128 109
0.11275 0.42728 -1.06696 123 126 107
0.11252 0.42686 -1.06778 118 120 104
0.11284 0.42650 -1.06765 115 116 98
0.11298 0.42677 -1.06839 118 121 101
0.11335 0.42710 -1.06834 123 127 106
0.11348 0.42665 -1.06918 119 121 101
0.11385 0.42699 -1.06914 125 128 105
0.11350 0.42627 -1.06942 116 116 98
0.11313 0.42593 -1.06946 113 112 94
0.11347 0.42591 -1.06937 116 112 96
0.11382 0.42590 -1.06928 118 115 98
0.11405 0.42537 -1.07070 118 114 97
0.11370 0.42538 -1.07078 113 109 95
0.11368 0.42502 -1.07074 111 108 87
0.10083 0.42578 -1.07169 123 110 99
0.10048 0.42580 -1.07178 119 106 94
0.10046 0.42545 -1.07174 119 107 93
0.10116 0.42579 -1.07147 128 120 109
0.10153 0.42574 -1.07164 134 127 116
0.10190 0.42608 -1.07160 142 134 121
0.11456 0.42487 -1.07158 116 115 84
0.11418 0.42452 -1.07163 112 109 82
0.11454 0.42451 -1.07154 114 111 81
0.11489 0.42449 -1.07145 116 112 78
0.10084 0.42538 -1.07212 122 111 98
0.10046 0.42504 -1.07216 119 105 91
0.10117 0.42538 -1.07187 127 120 106
0.10153 0.42535 -1.07192 134 127 112
0.10081 0.42503 -1.07199 122 111 95
0.10043 0.42469 -1.07203 118 105 90
0.10078 0.42468 -1.07195 122 110 93
0.10113 0.42467 -1.07186 127 119 98
0.10115 0.42503 -1.07182 127 120 101
0.10147 0.42466 -1.07168 132 124 103
0.10150 0.42500 -1.07183 132 126 107
0.10183 0.42305 -1.07281 136 130 114
0.10145 0.42270 -1.07285 128 122 105
0.10221 0.42298 -1.07312 141 135 119
0.10259 0.42332 -1.07308 143 142 125
0.10256 0.42296 -1.07304 144 140 127
0.10254 0.42261 -1.07299 143 141 128
0.10221 0.42258 -1.07335 140 135 121
0.10253 0.42221 -1.07322 143 141 127
0.10076 0.42230 -1.07354 118 105 92
0.10043 0.42267 -1.07367 115 104 83
0.10038 0.42195 -1.07358 115 101 86
0.10079 0.42265 -1.07358 118 108 90
0.10114 0.42264 -1.07350 122 114 94
0.10109 0.42192 -1.07341 122 113 99
0.10112 0.42226 -1.07358 123 113 96
0.10215 0.42228 -1.07289 139 134 123
0.10247 0.42191 -1.07275 143 138 123
0.10074 0.42192 -1.07361 116 106 93
0.10037 0.42158 -1.07366 114 100 89
0.10072 0.42156 -1.07357 116 104 93
0.10936 0.42065 -1.07282 141 144 123
0.10974 0.42100 -1.07277 140 142 119
0.13132 0.41836 -1.07707 117 117 85
0.13096 0.41877 -1.07722 117 119 92
0.13093 0.41838 -1.07717 118 116 89
0.13134 0.41875 -1.07712 116 119 91
0.13173 0.41874 -1.07702 115 117 92
0.13167 0.41796 -1.07692 113 111 79
0.10925 0.42038 -1.07219 132 135 112
0.13130 0.41797 -1.07706 113 112 81
0.13089 0.41759 -1.07710 111 110 83
0.13127 0.41758 -1.07701 111 109 79
0.13165 0.41756 -1.07691 111 108 78
0.11139 0.41990 -1.07182 109 105 84
0.11177 0.42025 -1.07177 113 112 88
0.11172 0.41953 -1.07168 108 103 81
0.10304 0.42183 -1.06112 130 127 107
0.10339 0.42214 -1.06108 134 134 114
0.10336 0.42182 -1.06103 129 125 105
0.10334 0.42149 -1.06099 119 114 93
0.11102 0.41954 -1.07197 112 107 89
0.11135 0.41916 -1.07183 110 105 86
0.10125 0.41984 -1.07258 111 99 87
0.10122 0.41951 -1.07238 103 91 85
0.10157 0.41949 -1.07231 106 95 86
0.08714 0.41959 -1.07657 132 125 111
0.08679 0.41960 -1.07666 135 126 111
0.08717 0.41995 -1.07661 135 129 115
0.08752 0.41993 -1.07652 132 128 111
0.08749 0.41957 -1.07648 128 125 108
0.08747 0.41922 -1.07644 125 119 100
0.10082 0.41921 -1.07215 93 76 67
0.10154 0.41915 -1.07217 95 83 72
0.08680 0.41941 -1.07555 132 123 108
0.08648 0.41978 -1.07569 138 129 111
0.08643 0.41907 -1.07560 131 123 109
0.08678 0.41906 -1.07551 127 118 103
0.08713 0.41905 -1.07542 124 114 96
0.10083 0.41878 -1.07256 84 66 55
0.10116 0.41840 -1.07243 82 69 54
0.10121 0.41870 -1.07282 84 70 60
0.10153 0.41833 -1.07269 83 71 54
0.10155 0.41870 -1.07266 85 73 60
0.10188 0.41833 -1.07252 84 74 57
0.09995 0.41843 -1.07070 80 63 47
0.09960 0.41845 -1.07079 78 60 41
0.10027 0.41807 -1.07057 86 68 50
0.10036 0.41826 -1.07151 81 65 50
0.09993 0.41808 -1.07067 84 66 49
0.09955 0.41774 -1.07071 85 62 52
0.09990 0.41773 -1.07062 87 66 53
0.10025 0.41771 -1.07053 86 66 51
0.10075 0.41772 -1.07235 87 70 52
0.10112 0.41806 -1.07231 85 71 58
0.10110 0.41770 -1.07226 88 74 56
0.10107 0.41735 -1.07222 91 76 59
0.07488 0.42148 -1.06122 131 124 108
0.07455 0.42118 -1.06125 129 119 104
0.07490 0.42179 -1.06125 130 126 110
0.07486 0.42117 -1.06118 132 121 108
0.07521 0.42177 -1.06118 131 128 113
0.07518 0.42147 -1.06114 133 127 113
0.10106 0.41653 -1.07267 91 76 63
0.10071 0.41655 -1.07276 89 68 57
0.10109 0.41689 -1.07271 91 75 61
0.10144 0.41688 -1.07262 91 79 64
0.10142 0.41652 -1.07258 92 79 68
0.10061 0.41639 -1.07168 92 71 57
0.10029 0.41675 -1.07181 89 65 59
0.10026 0.41640 -1.07177 89 67 54
0.10094 0.41602 -1.07155 95 79 64
0.10102 0.41621 -1.07242 92 76 63
0.10143 0.41606 -1.07308 93 80 70
0.10181 0.41640 -1.07303 93 82 70
0.10179 0.41604 -1.07299 95 84 76
0.10176 0.41568 -1.07294 100 88 77
0.10059 0.41602 -1.07169 92 76 58
0.10022 0.41568 -1.07174 90 72 54
0.10057 0.41566 -1.07165 93 77 57
0.10141 0.41568 -1.07313 97 83 71
0.10174 0.41530 -1.07300 100 90 70
0.10023 0.41368 -1.06898 90 74 53
0.09991 0.41405 -1.06911 90 72 56
0.09989 0.41370 -1.06906 89 71 52
0.09986 0.41335 -1.06902 89 68 52
0.10025 0.41403 -1.06902 90 74 54
0.10060 0.41402 -1.06893 90 77 57
0.10055 0.41375 -1.06853 92 79 58
0.10091 0.41408 -1.06848 91 81 64
0.10089 0.41374 -1.06844 94 84 63
0.07606 0.41459 -1.05873 133 122 104
0.07578 0.41490 -1.05884 132 119 106
0.07576 0.41460 -1.05880 131 119 102
0.07574 0.41429 -1.05877 130 119 101
0.07604 0.41428 -1.05869 132 121 101
0.07638 0.41488 -1.05869 135 127 113
0.07634 0.41454 -1.05880 135 125 109
0.07667 0.41484 -1.05876 136 129 109
0.07664 0.41453 -1.05872 136 128 112
0.07662 0.41422 -1.05868 137 125 114
0.11120 0.40277 -1.02807 96 91 76
0.11097 0.40303 -1.02817 98 98 81
0.11096 0.40278 -1.02813 96 91 77
0.11094 0.40253 -1.02810 91 85 69
0.11122 0.40302 -1.02810 97 97 80
0.11147 0.40301 -1.02804 98 95 78
0.11119 0.40252 -1.02804 91 85 68
0.11092 0.40228 -1.02807 88 80 59
0.11117 0.40227 -1.02801 88 80 63
0.11142 0.40226 -1.02795 88 80 63
0.11137 0.40264 -1.02768 93 83 67
0.11159 0.40238 -1.02759 88 80 62
