ply
format ascii 1.0
element face 0
property list uchar int vertex_indices
element vertex 1318
property float x
property float y
property float z
property uchar diffuse_red
property uchar diffuse_green
property uchar diffuse_blue
end_header
0.08678 0.45134 -1.08055 165 158 146
0.08676 0.45096 -1.08078 165 159 150
0.08720 0.45139 -1.08068 166 157 144
0.08719 0.45095 -1.08068 164 156 147
0.08718 0.45051 -1.08069 166 157 147
0.09840 0.45063 -1.07808 169 162 151
0.09796 0.45020 -1.07818 167 163 151
0.09883 0.45062 -1.07799 160 152 140
0.09927 0.45074 -1.07846 126 115 107
0.09970 0.45080 -1.07867 96 75 74
0.10013 0.45035 -1.07858 93 60 58
0.10057 0.45078 -1.07848 111 70 71
0.10101 0.45086 -1.07876 133 94 101
0.10124 0.44908 -1.07128 171 143 148
0.10167 0.44916 -1.07153 184 170 168
0.10207 0.44873 -1.07145 182 174 168
0.10207 0.44908 -1.07117 183 175 173
0.10249 0.44907 -1.07108 184 177 172
0.10248 0.44865 -1.07109 183 176 167
0.10838 0.45067 -1.07713 194 189 176
0.10793 0.45024 -1.07723 193 189 171
0.10837 0.45023 -1.07714 192 187 171
0.10882 0.45070 -1.07720 185 177 165
0.10925 0.45025 -1.07711 174 171 158
0.11193 0.45080 -1.07729 137 135 130
0.11237 0.45082 -1.07729 141 140 137
0.11280 0.45078 -1.07709 176 176 172
0.11320 0.45069 -1.07668 197 195 186
0.11363 0.45067 -1.07652 196 196 187
0.11407 0.45066 -1.07643 188 189 180
0.11406 0.45021 -1.07643 185 187 178
0.08635 0.45041 -1.08035 175 167 153
0.08591 0.44998 -1.08044 179 169 162
0.08678 0.45042 -1.08035 170 161 149
0.09839 0.45021 -1.07816 169 163 150
0.09795 0.44978 -1.07826 168 161 153
0.09882 0.45020 -1.07807 161 155 143
0.09925 0.45026 -1.07829 128 116 107
0.09969 0.45030 -1.07840 97 76 72
0.10011 0.44985 -1.07831 91 60 63
0.10056 0.45032 -1.07837 108 67 71
0.10101 0.45050 -1.07908 133 91 99
0.10122 0.44856 -1.07082 172 141 142
0.10164 0.44857 -1.07084 183 168 163
0.11122 0.44968 -1.07447 181 176 164
0.11078 0.44925 -1.07456 206 201 180
0.11189 0.45029 -1.07702 138 133 128
0.11234 0.45031 -1.07703 138 137 132
0.11282 0.45041 -1.07741 174 172 158
0.11322 0.45031 -1.07694 193 189 175
0.11364 0.45026 -1.07667 189 188 175
0.11406 0.44981 -1.07658 162 162 157
0.08637 0.44990 -1.08004 174 165 157
0.08593 0.44947 -1.08013 178 169 163
0.08636 0.44946 -1.08004 174 165 159
0.08678 0.44945 -1.07995 170 161 156
0.08679 0.44991 -1.08004 171 160 154
0.08721 0.44946 -1.07995 167 159 156
0.09838 0.44982 -1.07836 169 161 151
0.09794 0.44939 -1.07845 169 161 158
0.09881 0.44981 -1.07827 159 151 138
0.09924 0.44982 -1.07827 128 117 106
0.09967 0.44976 -1.07797 95 76 72
0.10099 0.44994 -1.07859 135 92 98
0.10121 0.44814 -1.07085 170 140 138
0.10162 0.44810 -1.07064 181 167 158
0.10203 0.44804 -1.07034 183 174 168
0.10244 0.44803 -1.07025 184 176 168
0.10243 0.44761 -1.07025 182 178 172
0.11111 0.44897 -1.07330 182 175 165
0.11067 0.44854 -1.07340 205 201 180
0.11180 0.44964 -1.07613 142 136 130
0.11225 0.44967 -1.07620 143 138 125
0.11271 0.44972 -1.07635 161 159 142
0.11313 0.44927 -1.07626 109 112 101
0.11313 0.44969 -1.07618 162 163 149
0.11356 0.44924 -1.07609 93 100 101
0.11360 0.44976 -1.07643 159 159 152
0.11403 0.44931 -1.07635 98 104 111
0.09837 0.44944 -1.07862 168 161 158
0.09793 0.44901 -1.07872 170 160 150
0.09880 0.44943 -1.07853 158 152 145
0.09923 0.44937 -1.07824 127 115 109
0.09966 0.44925 -1.07767 96 76 71
0.10008 0.44880 -1.07759 93 62 64
0.10009 0.44924 -1.07758 92 61 59
0.10052 0.44923 -1.07749 107 66 63
0.10121 0.44772 -1.07087 169 145 136
0.10161 0.44767 -1.07060 178 169 164
0.10202 0.44761 -1.07029 180 176 174
0.10814 0.44866 -1.07419 190 186 167
0.10772 0.44911 -1.07427 192 185 169
0.10772 0.44867 -1.07428 189 189 172
0.10771 0.44824 -1.07428 190 186 169
0.10854 0.44858 -1.07377 185 179 162
0.10896 0.44814 -1.07369 173 161 153
0.11109 0.44851 -1.07319 183 178 165
0.11065 0.44809 -1.07328 202 204 184
0.11108 0.44808 -1.07319 187 188 170
0.11150 0.44807 -1.07310 165 160 147
0.11180 0.44921 -1.07618 146 140 135
0.11222 0.44876 -1.07609 158 157 142
0.11224 0.44924 -1.07626 142 138 128
0.11267 0.44879 -1.07617 140 139 127
0.11271 0.44930 -1.07648 137 137 121
0.11313 0.44885 -1.07639 99 99 98
0.09836 0.44905 -1.07883 169 159 153
0.09792 0.44862 -1.07893 168 160 154
0.09880 0.44904 -1.07874 159 150 143
0.09922 0.44893 -1.07822 126 114 105
0.09964 0.44876 -1.07742 97 76 72
0.10006 0.44831 -1.07733 95 60 69
0.10050 0.44874 -1.07724 106 67 71
0.10093 0.44866 -1.07688 130 93 97
0.10120 0.44735 -1.07108 166 144 141
0.10161 0.44728 -1.07073 176 168 158
0.10201 0.44721 -1.07035 179 174 163
0.10242 0.44720 -1.07027 182 178 166
0.10284 0.44761 -1.07018 183 177 166
0.10283 0.44719 -1.07018 181 180 170
0.10283 0.44677 -1.07018 182 179 170
0.10808 0.44806 -1.07347 190 185 170
0.10765 0.44764 -1.07356 189 185 171
0.10848 0.44798 -1.07303 184 176 164
0.09836 0.44863 -1.07895 167 161 155
0.09791 0.44820 -1.07905 167 161 150
0.09879 0.44862 -1.07886 158 150 141
0.09922 0.44852 -1.07837 128 116 108
0.09963 0.44825 -1.07710 99 75 76
0.10005 0.44780 -1.07702 93 58 68
0.10048 0.44816 -1.07663 107 67 79
0.10089 0.44799 -1.07582 130 91 104
0.10120 0.44701 -1.07142 167 140 144
0.10160 0.44689 -1.07083 179 166 161
0.10201 0.44683 -1.07052 180 174 165
0.10242 0.44682 -1.07044 181 177 165
0.10803 0.44749 -1.07286 190 186 173
0.10760 0.44707 -1.07295 187 188 173
0.10841 0.44737 -1.07224 179 176 164
0.10882 0.44693 -1.07216 170 171 158
0.09835 0.44824 -1.07915 166 159 147
0.09790 0.44781 -1.07925 166 162 150
0.09878 0.44823 -1.07906 159 148 135
0.09921 0.44810 -1.07846 133 116 110
0.09962 0.44776 -1.07689 99 73 78
0.10120 0.44666 -1.07174 163 137 133
0.10160 0.44652 -1.07110 177 165 152
0.10200 0.44645 -1.07074 176 173 160
0.10241 0.44603 -1.07066 176 171 166
0.10242 0.44644 -1.07063 176 174 164
0.10282 0.44601 -1.07054 178 175 164
0.10797 0.44693 -1.07223 186 187 171
0.10754 0.44651 -1.07232 185 186 171
0.11405 0.44719 -1.07280 108 109 113
0.11364 0.44764 -1.07289 80 83 91
0.11363 0.44720 -1.07289 102 102 103
0.11406 0.44763 -1.07280 90 93 98
0.11449 0.44762 -1.07271 118 117 120
0.11447 0.44675 -1.07271 162 163 152
0.09961 0.44742 -1.07731 98 73 80
0.10003 0.44697 -1.07723 91 57 65
0.10004 0.44741 -1.07722 91 56 63
0.10048 0.44751 -1.07764 107 64 72
0.10119 0.44624 -1.07178 162 137 134
0.10159 0.44612 -1.07117 177 164 152
0.10200 0.44606 -1.07086 176 169 159
0.10240 0.44563 -1.07078 179 174 162
0.10793 0.44638 -1.07171 184 185 169
0.10750 0.44597 -1.07180 185 185 167
0.11313 0.44576 -1.06832 141 142 128
0.11273 0.44619 -1.06841 102 102 100
0.11272 0.44577 -1.06841 152 152 136
0.11271 0.44535 -1.06841 174 171 151
0.11312 0.44534 -1.06833 165 165 145
0.11358 0.44581 -1.06852 140 140 134
0.11398 0.44538 -1.06843 177 176 162
0.09961 0.44706 -1.07768 98 74 77
0.10118 0.44578 -1.07159 164 138 134
0.10158 0.44569 -1.07115 179 166 152
0.10199 0.44526 -1.07107 175 174 157
0.10199 0.44563 -1.07083 179 172 157
0.10239 0.44520 -1.07075 177 176 160
0.10788 0.44584 -1.07117 183 181 167
0.10745 0.44542 -1.07126 190 185 174
0.10003 0.44662 -1.07762 89 59 66
0.10117 0.44533 -1.07147 164 139 135
0.10157 0.44525 -1.07107 176 167 155
0.10198 0.44482 -1.07098 174 173 159
0.10785 0.44535 -1.07089 187 181 170
0.10743 0.44494 -1.07099 185 186 172
0.10826 0.44492 -1.07081 179 175 165
0.10115 0.44483 -1.07108 161 138 136
0.10156 0.44481 -1.07096 174 166 155
0.10113 0.44431 -1.07063 163 137 130
0.10154 0.44434 -1.07071 176 165 150
0.10195 0.44432 -1.07061 176 171 158
0.10238 0.44473 -1.07052 175 176 161
0.10237 0.44431 -1.07052 175 174 161
0.10236 0.44390 -1.07052 173 174 161
0.09829 0.44565 -1.07946 165 159 139
0.09785 0.44522 -1.07956 162 160 149
0.09873 0.44564 -1.07937 157 150 134
0.09914 0.44538 -1.07805 130 118 113
0.10113 0.44399 -1.07112 163 135 132
0.10153 0.44389 -1.07058 176 163 151
0.10193 0.44346 -1.07049 175 171 161
0.10193 0.44383 -1.07023 175 171 158
0.10234 0.44340 -1.07015 173 172 161
0.09828 0.44513 -1.07906 163 161 149
0.09784 0.44470 -1.07915 162 158 147
0.09871 0.44512 -1.07897 156 151 139
0.09913 0.44491 -1.07788 129 118 108
0.10111 0.44349 -1.07071 161 134 137
0.09827 0.44459 -1.07856 163 158 150
0.09783 0.44416 -1.07866 161 158 143
0.09870 0.44458 -1.07847 157 150 139
0.09912 0.44438 -1.07746 131 119 106
0.09825 0.44400 -1.07780 161 158 143
0.09781 0.44357 -1.07789 160 156 143
0.09868 0.44399 -1.07771 156 150 134
0.09910 0.44384 -1.07692 129 118 106
0.09950 0.44340 -1.07464 96 73 71
0.09992 0.44339 -1.07455 88 55 55
0.10034 0.44340 -1.07461 101 65 66
0.10077 0.44340 -1.07453 121 88 90
0.10108 0.44259 -1.07040 156 135 135
0.10735 0.44153 -1.06448 180 179 161
0.10696 0.44195 -1.06456 186 181 175
0.10695 0.44154 -1.06457 182 182 170
0.10694 0.44114 -1.06457 181 181 168
0.10776 0.44193 -1.06440 174 171 154
0.09824 0.44341 -1.07703 162 157 138
0.09780 0.44299 -1.07713 161 155 143
0.09823 0.44298 -1.07704 161 156 142
0.09866 0.44340 -1.07694 156 150 127
0.09909 0.44329 -1.07634 130 118 105
0.09949 0.44299 -1.07476 96 76 72
0.09991 0.44298 -1.07467 86 57 54
0.10034 0.44302 -1.07483 99 61 59
0.10076 0.44299 -1.07466 122 85 89
0.10106 0.44210 -1.07006 158 132 135
0.09865 0.44283 -1.07624 156 150 132
0.09821 0.44241 -1.07634 162 155 145
0.09906 0.44265 -1.07527 131 118 103
0.09948 0.44259 -1.07491 97 75 69
0.09989 0.44215 -1.07482 91 56 64
0.09990 0.44258 -1.07482 88 58 61
0.09863 0.44225 -1.07548 156 149 137
0.09904 0.44196 -1.07390 130 117 106
0.09948 0.44220 -1.07511 96 72 71
0.09819 0.44162 -1.07447 160 153 141
0.09778 0.44206 -1.07455 161 154 142
0.09777 0.44163 -1.07455 159 152 143
0.09776 0.44121 -1.07456 155 149 138
0.09861 0.44162 -1.07438 155 147 134
0.09902 0.44141 -1.07326 130 116 107
0.09947 0.44176 -1.07509 98 71 71
0.09989 0.44175 -1.07500 91 55 63
0.10031 0.44173 -1.07483 99 57 67
0.10141 0.44059 -1.06867 170 159 151
0.09817 0.44103 -1.07355 156 149 136
0.09775 0.44061 -1.07364 157 152 138
0.09859 0.44103 -1.07350 151 142 130
0.09900 0.44086 -1.07258 129 114 105
0.09946 0.44134 -1.07512 97 72 69
0.09988 0.44133 -1.07503 89 54 58
0.10030 0.44126 -1.07463 98 56 64
0.10067 0.44085 -1.07240 120 82 89
0.10108 0.44042 -1.07231 154 125 122
0.10179 0.44008 -1.06810 166 165 150
0.10221 0.44049 -1.06801 168 168 152
0.10220 0.44007 -1.06802 168 163 149
0.10219 0.43966 -1.06802 170 163 149
0.09816 0.44045 -1.07271 158 152 135
0.09773 0.44004 -1.07280 157 155 143
0.09858 0.44047 -1.07280 154 144 126
0.09899 0.44034 -1.07201 129 113 99
0.09945 0.44089 -1.07502 98 73 70
0.09987 0.44088 -1.07493 88 54 56
0.10029 0.44081 -1.07455 97 55 62
0.10068 0.44055 -1.07306 121 79 87
0.09815 0.43989 -1.07193 158 155 139
0.09772 0.43948 -1.07203 157 154 143
0.09856 0.43994 -1.07217 152 146 130
0.09897 0.43987 -1.07179 129 116 105
0.09943 0.44042 -1.07479 97 73 74
0.09985 0.44038 -1.07457 90 55 63
0.10027 0.44035 -1.07434 97 53 65
0.10068 0.44023 -1.07365 122 77 86
0.10095 0.43915 -1.06757 155 125 121
0.10135 0.43914 -1.06746 169 156 145
0.10174 0.43872 -1.06738 166 162 158
0.10175 0.43911 -1.06729 170 163 150
0.10215 0.43910 -1.06721 170 164 154
0.10214 0.43869 -1.06721 168 166 160
0.09813 0.43938 -1.07142 156 153 140
0.09771 0.43897 -1.07151 155 152 139
0.09812 0.43896 -1.07142 155 150 142
0.09855 0.43944 -1.07172 150 147 133
0.09897 0.43950 -1.07204 126 120 106
0.09942 0.43994 -1.07451 92 78 73
0.09983 0.43986 -1.07406 86 58 67
0.10025 0.43985 -1.07397 96 55 69
0.10066 0.43973 -1.07324 120 80 87
0.10093 0.43870 -1.06735 153 129 125
0.10133 0.43866 -1.06706 168 156 151
0.09853 0.43892 -1.07118 150 146 134
0.09811 0.43851 -1.07127 156 151 137
0.09895 0.43901 -1.07164 128 120 110
0.09941 0.43949 -1.07441 95 76 78
0.09983 0.43947 -1.07424 87 56 65
0.10025 0.43946 -1.07416 95 54 66
0.10066 0.43936 -1.07358 119 79 89
0.10093 0.43832 -1.06752 152 127 128
0.10132 0.43822 -1.06692 166 155 151
0.10172 0.43820 -1.06679 165 162 153
0.10212 0.43819 -1.06671 168 167 154
0.10211 0.43778 -1.06671 167 165 152
0.09852 0.43844 -1.07082 150 146 130
0.09810 0.43803 -1.07091 156 150 134
0.09894 0.43860 -1.07172 127 119 107
0.09940 0.43905 -1.07434 96 77 77
0.09982 0.43905 -1.07431 86 56 56
0.10024 0.43904 -1.07422 95 56 52
0.10066 0.43900 -1.07393 116 79 73
0.10094 0.43807 -1.06845 151 123 117
0.10132 0.43787 -1.06727 166 152 142
0.10172 0.43785 -1.06713 167 161 150
0.10211 0.43743 -1.06705 169 162 148
0.10762 0.43738 -1.06392 164 163 151
0.10723 0.43739 -1.06401 171 171 156
0.10803 0.43777 -1.06384 157 152 139
0.10802 0.43737 -1.06384 156 155 140
0.10801 0.43697 -1.06384 156 156 140
0.10826 0.43702 -1.06174 166 166 145
0.10827 0.43742 -1.06174 171 167 152
0.10866 0.43741 -1.06166 177 174 154
0.10858 0.43684 -1.06070 174 175 153
0.10898 0.43723 -1.06061 182 181 162
0.10890 0.43669 -1.05978 178 179 162
0.10929 0.43707 -1.05969 191 191 173
0.10924 0.43659 -1.05919 189 190 175
0.10964 0.43698 -1.05910 193 193 171
0.10963 0.43658 -1.05911 192 194 174
0.10962 0.43619 -1.05911 189 192 172
0.09851 0.43800 -1.07069 151 144 128
0.09894 0.43826 -1.07219 129 119 103
0.09939 0.43863 -1.07441 97 74 65
0.09981 0.43862 -1.07432 86 52 50
0.10023 0.43862 -1.07429 94 55 56
0.10065 0.43859 -1.07404 115 80 77
0.10094 0.43772 -1.06887 149 123 115
0.10132 0.43753 -1.06767 165 150 140
0.10172 0.43752 -1.06758 168 160 146
0.10212 0.43710 -1.06750 168 160 146
0.10730 0.43719 -1.06523 171 169 160
0.10691 0.43761 -1.06531 171 172 154
0.10690 0.43720 -1.06532 173 170 158
0.10689 0.43679 -1.06532 169 169 153
0.10767 0.43710 -1.06468 163 163 151
0.10806 0.43669 -1.06460 157 155 139
0.10832 0.43675 -1.06255 165 166 143
0.10863 0.43658 -1.06150 174 172 153
0.10895 0.43642 -1.06051 180 178 165
0.10928 0.43629 -1.05974 189 190 174
0.10966 0.43589 -1.05966 191 188 169
0.09809 0.43753 -1.07042 154 153 135
0.09769 0.43796 -1.07050 155 152 135
0.09768 0.43754 -1.07051 154 153 136
0.09767 0.43713 -1.07051 154 150 133
0.09850 0.43756 -1.07059 149 144 126
0.09894 0.43791 -1.07267 129 119 99
0.09939 0.43827 -1.07482 97 76 63
0.09981 0.43826 -1.07473 86 53 47
0.10023 0.43826 -1.07466 96 56 55
0.10065 0.43821 -1.07435 115 79 79
0.10096 0.43746 -1.06978 146 122 116
0.10133 0.43721 -1.06825 165 152 136
0.10173 0.43720 -1.06816 166 159 141
0.10213 0.43678 -1.06808 167 162 150
0.10731 0.43684 -1.06556 168 166 154
0.10690 0.43644 -1.06565 170 169 150
0.10769 0.43677 -1.06514 163 158 147
0.10808 0.43635 -1.06506 155 151 141
0.10836 0.43647 -1.06327 165 166 143
0.10869 0.43631 -1.06226 173 173 154
0.10901 0.43615 -1.06130 178 178 163
0.10933 0.43601 -1.06042 187 187 170
0.10971 0.43561 -1.06034 190 188 171
0.09808 0.43715 -1.07064 155 149 134
0.09766 0.43674 -1.07073 152 149 135
0.09807 0.43673 -1.07064 154 148 136
0.09850 0.43724 -1.07113 152 142 126
0.09894 0.43761 -1.07339 130 116 100
0.09939 0.43798 -1.07565 96 76 66
0.09981 0.43795 -1.07544 86 56 55
0.10024 0.43794 -1.07535 94 56 58
0.10066 0.43795 -1.07538 112 77 77
0.10099 0.43731 -1.07145 147 123 117
0.10133 0.43687 -1.06868 164 152 140
0.10173 0.43645 -1.06860 162 158 145
0.10174 0.43686 -1.06860 165 159 145
0.10213 0.43644 -1.06851 166 160 149
0.10732 0.43646 -1.06574 168 167 149
0.10691 0.43606 -1.06583 167 169 149
0.10770 0.43640 -1.06535 163 161 147
0.10809 0.43598 -1.06527 153 152 143
0.10839 0.43614 -1.06373 164 164 148
0.10838 0.43574 -1.06373 163 163 146
0.10878 0.43573 -1.06365 173 170 154
0.10872 0.43599 -1.06280 175 173 155
0.10911 0.43558 -1.06272 175 176 162
0.10905 0.43585 -1.06191 177 177 162
0.10943 0.43544 -1.06183 185 187 172
0.10936 0.43570 -1.06091 186 184 170
0.10974 0.43529 -1.06083 186 189 169
0.07684 0.43450 -1.05794 139 129 116
0.07648 0.43488 -1.05802 136 125 113
0.07647 0.43451 -1.05802 136 124 111
0.07647 0.43414 -1.05802 133 124 111
0.07685 0.43487 -1.05794 140 130 116
0.07721 0.43486 -1.05786 153 141 129
0.07723 0.43446 -1.05766 151 141 128
0.07760 0.43482 -1.05758 161 149 139
0.07761 0.43444 -1.05751 161 151 136
0.07798 0.43480 -1.05743 162 154 144
0.07797 0.43443 -1.05743 164 154 142
0.07796 0.43406 -1.05744 164 154 143
0.09849 0.43678 -1.07094 151 143 130
0.09807 0.43638 -1.07103 150 146 136
0.09893 0.43718 -1.07339 128 117 104
0.09939 0.43761 -1.07607 94 75 68
0.09981 0.43759 -1.07589 84 56 53
0.10023 0.43758 -1.07580 91 55 52
0.10066 0.43757 -1.07571 112 78 75
0.10133 0.43650 -1.06895 160 152 139
0.10730 0.43603 -1.06567 166 164 147
0.10689 0.43564 -1.06576 165 168 150
0.10729 0.43563 -1.06567 166 164 148
0.10768 0.43597 -1.06525 162 158 147
0.10807 0.43555 -1.06517 152 153 139
0.07681 0.43415 -1.05811 137 130 120
0.07643 0.43379 -1.05819 131 123 116
0.07719 0.43412 -1.05790 148 142 131
0.07757 0.43410 -1.05774 160 152 139
0.07792 0.43372 -1.05767 163 154 144
0.09848 0.43648 -1.07169 149 143 131
0.09806 0.43607 -1.07178 150 149 134
0.10065 0.43716 -1.07587 110 77 78
0.10133 0.43613 -1.06925 163 152 139
0.10173 0.43612 -1.06916 164 157 146
0.10214 0.43611 -1.06908 165 157 150
0.10213 0.43569 -1.06908 165 156 150
0.07673 0.43385 -1.05856 135 129 120
0.07636 0.43349 -1.05865 132 124 116
0.07712 0.43382 -1.05836 146 141 130
0.07747 0.43383 -1.05837 159 152 141
0.07783 0.43345 -1.05830 163 154 142
0.09848 0.43615 -1.07224 147 144 130
0.09806 0.43574 -1.07233 151 149 133
0.09894 0.43678 -1.07635 127 118 105
0.09937 0.43682 -1.07659 95 75 67
0.09980 0.43678 -1.07629 84 54 53
0.10022 0.43677 -1.07620 92 54 58
0.10065 0.43677 -1.07618 112 77 79
0.10099 0.43623 -1.07262 146 121 116
0.10134 0.43585 -1.07017 162 148 137
0.10173 0.43574 -1.06941 166 154 145
0.10213 0.43532 -1.06933 164 157 146
0.07661 0.43360 -1.05936 136 129 119
0.07623 0.43323 -1.05944 131 124 112
0.07700 0.43357 -1.05916 146 140 126
0.07736 0.43357 -1.05913 159 151 137
0.07772 0.43319 -1.05905 162 155 142
0.09936 0.43634 -1.07627 95 75 64
0.09978 0.43630 -1.07595 86 55 50
0.10021 0.43629 -1.07588 91 55 57
0.10063 0.43629 -1.07588 110 75 77
0.10100 0.43594 -1.07349 144 117 113
0.10133 0.43544 -1.07021 161 146 135
0.10174 0.43502 -1.07013 161 156 143
0.10173 0.43536 -1.06961 165 154 143
0.10213 0.43493 -1.06953 160 158 142
0.07648 0.43335 -1.06022 137 128 118
0.07610 0.43298 -1.06030 129 124 111
0.07686 0.43332 -1.06003 146 136 124
0.07723 0.43332 -1.05998 158 149 134
0.09846 0.43532 -1.07238 146 144 132
0.09934 0.43578 -1.07540 97 75 65
0.09976 0.43575 -1.07519 85 53 45
0.10018 0.43574 -1.07506 89 53 49
0.10061 0.43573 -1.07498 110 73 72
0.10096 0.43531 -1.07215 144 115 113
0.07639 0.43305 -1.06077 135 127 115
0.07601 0.43268 -1.06086 131 124 108
0.07678 0.43303 -1.06060 144 132 122
0.07714 0.43302 -1.06055 156 146 136
0.07752 0.43301 -1.06041 161 154 145
0.07790 0.43338 -1.06032 161 155 144
0.07789 0.43300 -1.06033 161 153 144
0.07789 0.43262 -1.06033 163 152 142
0.09803 0.43476 -1.07144 153 147 131
0.09763 0.43519 -1.07153 154 149 132
0.09762 0.43477 -1.07153 153 147 129
0.09761 0.43435 -1.07153 150 144 127
0.09802 0.43434 -1.07145 151 145 127
0.09932 0.43526 -1.07480 97 72 64
0.09974 0.43524 -1.07466 84 52 48
0.10016 0.43522 -1.07449 90 54 56
0.10058 0.43519 -1.07423 110 75 79
0.10093 0.43478 -1.07143 143 119 113
0.10131 0.43456 -1.06992 160 149 136
0.10171 0.43414 -1.06984 161 156 139
0.07632 0.43274 -1.06121 134 127 114
0.07594 0.43237 -1.06130 132 122 110
0.07671 0.43271 -1.06099 143 132 122
0.07708 0.43270 -1.06091 156 145 135
0.07748 0.43267 -1.06068 163 152 142
0.07784 0.43228 -1.06061 165 152 143
0.09844 0.43435 -1.07148 147 140 122
0.09801 0.43394 -1.07157 148 146 126
0.09886 0.43445 -1.07214 130 117 103
0.09930 0.43475 -1.07426 96 72 66
0.09972 0.43472 -1.07401 85 52 53
0.10014 0.43471 -1.07393 90 52 58
0.10056 0.43469 -1.07375 110 74 75
0.10089 0.43416 -1.07001 141 118 109
0.10130 0.43414 -1.06989 158 149 130
0.10170 0.43372 -1.06981 162 154 141
0.07630 0.43237 -1.06128 135 125 117
0.07592 0.43200 -1.06136 132 121 112
0.07669 0.43234 -1.06107 143 132 124
0.07707 0.43232 -1.06093 156 144 133
0.07747 0.43229 -1.06067 163 151 139
0.07783 0.43190 -1.06060 163 153 143
0.09842 0.43389 -1.07116 146 143 120
0.09800 0.43348 -1.07125 148 147 132
0.09885 0.43398 -1.07184 129 118 102
0.09929 0.43425 -1.07372 95 73 69
0.09970 0.43421 -1.07344 83 51 55
0.10012 0.43420 -1.07335 89 50 56
0.10054 0.43417 -1.07311 110 74 77
0.10087 0.43370 -1.06971 141 117 112
0.10128 0.43370 -1.06972 159 147 135
0.07633 0.43195 -1.06101 136 124 117
0.07595 0.43158 -1.06109 131 124 108
0.07673 0.43192 -1.06078 144 131 123
0.07711 0.43190 -1.06065 155 143 132
0.07750 0.43187 -1.06038 162 152 139
0.07787 0.43148 -1.06030 160 154 145
0.09841 0.43342 -1.07086 145 144 123
0.09799 0.43302 -1.07095 151 145 132
0.09883 0.43348 -1.07128 128 118 102
0.09927 0.43377 -1.07333 94 74 67
0.09969 0.43373 -1.07302 82 51 51
0.10010 0.43372 -1.07295 88 50 50
0.10052 0.43369 -1.07272 109 71 70
0.10086 0.43326 -1.06956 142 114 106
0.10127 0.43327 -1.06961 159 144 131
0.10168 0.43326 -1.06951 161 153 140
0.10210 0.43366 -1.06942 161 154 142
0.10209 0.43325 -1.06942 159 154 145
0.10208 0.43283 -1.06942 158 155 144
0.07637 0.43153 -1.06070 134 125 113
0.07599 0.43116 -1.06079 130 123 106
0.07636 0.43115 -1.06071 133 125 111
0.07673 0.43114 -1.06063 138 130 119
0.07677 0.43150 -1.06044 140 131 120
0.07713 0.43111 -1.06037 150 143 131
0.07715 0.43148 -1.06031 152 144 131
0.07751 0.43109 -1.06023 158 152 139
0.07754 0.43145 -1.06004 159 152 140
0.07790 0.43106 -1.05997 160 154 142
0.09840 0.43294 -1.07037 147 141 125
0.09798 0.43253 -1.07046 149 145 127
0.09881 0.43300 -1.07076 128 117 101
0.09926 0.43329 -1.07295 96 74 65
0.09967 0.43325 -1.07262 85 53 49
0.10009 0.43324 -1.07252 89 49 48
0.10050 0.43321 -1.07230 108 72 69
0.10085 0.43282 -1.06941 141 115 105
0.10126 0.43284 -1.06952 159 145 130
0.10166 0.43241 -1.06943 159 152 135
0.10167 0.43283 -1.06942 161 152 140
0.10207 0.43240 -1.06934 158 152 140
0.09839 0.43246 -1.06987 146 140 122
0.09797 0.43205 -1.06996 149 143 124
0.09880 0.43251 -1.07027 129 118 102
0.09924 0.43281 -1.07251 95 74 65
0.09965 0.43277 -1.07220 84 52 49
0.10007 0.43276 -1.07212 88 52 47
0.10048 0.43273 -1.07190 108 73 68
0.10084 0.43240 -1.06933 141 117 107
0.10125 0.43240 -1.06938 156 145 128
0.10165 0.43198 -1.06930 158 153 137
0.09837 0.43198 -1.06937 147 138 120
0.09796 0.43157 -1.06946 149 142 120
0.09879 0.43206 -1.06999 131 116 100
0.09922 0.43231 -1.07188 97 75 63
0.09964 0.43227 -1.07163 83 52 47
0.10005 0.43226 -1.07155 89 51 48
0.10046 0.43225 -1.07146 107 72 69
0.10083 0.43197 -1.06927 140 117 109
0.10124 0.43200 -1.06948 155 145 130
0.08219 0.43181 -1.07176 168 158 149
0.08179 0.43223 -1.07184 170 161 150
0.08178 0.43182 -1.07185 171 159 151
0.08177 0.43141 -1.07185 170 157 148
0.08220 0.43222 -1.07176 167 159 148
0.08260 0.43222 -1.07167 159 151 141
0.08259 0.43180 -1.07167 158 150 140
0.08301 0.43220 -1.07158 149 143 134
0.08296 0.43184 -1.07194 147 143 130
0.08338 0.43224 -1.07185 152 146 135
0.08336 0.43185 -1.07199 150 146 128
0.08377 0.43225 -1.07190 162 153 139
0.08375 0.43186 -1.07206 161 153 135
0.08416 0.43226 -1.07197 166 156 143
0.08416 0.43185 -1.07198 164 156 141
0.08415 0.43143 -1.07198 162 155 143
0.09836 0.43148 -1.06875 148 138 117
0.09794 0.43108 -1.06884 148 142 125
0.09877 0.43159 -1.06954 131 116 97
0.09921 0.43179 -1.07118 97 74 61
0.09962 0.43177 -1.07101 84 49 44
0.10003 0.43176 -1.07092 89 51 47
0.10044 0.43175 -1.07078 105 72 66
0.10082 0.43157 -1.06941 138 118 107
0.10123 0.43158 -1.06945 154 144 131
0.10165 0.43160 -1.06959 155 152 138
0.10207 0.43201 -1.06950 156 152 141
0.10206 0.43159 -1.06951 154 153 136
0.10205 0.43118 -1.06951 156 153 134
0.08217 0.43141 -1.07185 167 157 144
0.08176 0.43101 -1.07194 170 158 150
0.08257 0.43140 -1.07177 158 150 136
0.08295 0.43143 -1.07197 148 142 126
0.08335 0.43101 -1.07189 149 142 126
0.08335 0.43144 -1.07202 150 144 127
0.08374 0.43102 -1.07194 158 150 137
0.08374 0.43145 -1.07210 159 151 137
0.08413 0.43103 -1.07202 161 155 141
0.09919 0.43129 -1.07051 97 72 60
0.09960 0.43128 -1.07041 82 47 43
0.10001 0.43127 -1.07031 89 49 49
0.10042 0.43126 -1.07020 106 70 72
0.10081 0.43116 -1.06940 137 113 108
0.10123 0.43118 -1.06958 155 142 131
0.10163 0.43076 -1.06950 156 150 129
0.10164 0.43120 -1.06968 158 151 136
0.10204 0.43077 -1.06960 157 151 130
0.08214 0.43103 -1.07211 169 157 148
0.08172 0.43063 -1.07219 170 159 150
0.08254 0.43102 -1.07203 159 150 138
0.08293 0.43104 -1.07216 146 141 125
0.08332 0.43062 -1.07208 149 138 127
0.09917 0.43081 -1.06997 97 75 65
0.09958 0.43080 -1.06993 82 49 46
0.09999 0.43079 -1.06984 88 47 49
0.10040 0.43079 -1.06978 105 68 70
0.10081 0.43077 -1.06964 136 114 107
0.10122 0.43078 -1.06970 153 143 127
0.07677 0.42919 -1.06006 136 128 113
0.07641 0.42957 -1.06014 132 124 113
0.07640 0.42919 -1.06014 132 122 108
0.07640 0.42882 -1.06014 132 120 105
0.07678 0.42956 -1.06006 136 128 121
0.07715 0.42955 -1.05998 147 138 132
0.07715 0.42917 -1.05992 146 138 122
0.07753 0.42954 -1.05984 155 147 138
0.07757 0.42912 -1.05952 155 145 129
0.07794 0.42949 -1.05944 158 149 139
0.07794 0.42911 -1.05944 158 150 132
0.08211 0.43065 -1.07232 166 158 147
0.08169 0.43024 -1.07241 167 158 146
0.08210 0.43023 -1.07233 163 155 143
0.08250 0.43022 -1.07224 156 148 136
0.08251 0.43064 -1.07231 156 150 136
0.08290 0.43022 -1.07223 147 136 128
0.08290 0.43066 -1.07240 146 138 124
0.08329 0.43023 -1.07232 148 135 129
0.09916 0.43034 -1.06956 94 75 65
0.09956 0.43034 -1.06951 80 49 45
0.09997 0.43033 -1.06943 86 48 50
0.10038 0.43033 -1.06939 103 67 72
0.10080 0.43037 -1.06972 137 112 109
0.10121 0.43037 -1.06979 154 142 127
0.10163 0.43037 -1.06979 156 150 130
0.10204 0.43036 -1.06970 156 152 134
0.10203 0.42995 -1.06971 156 151 138
0.07676 0.42882 -1.06013 136 125 109
0.07638 0.42845 -1.06021 131 120 104
0.07712 0.42843 -1.06005 145 131 115
0.07713 0.42880 -1.06001 146 134 118
0.07749 0.42842 -1.05994 155 141 130
0.07753 0.42877 -1.05971 155 143 130
0.07789 0.42839 -1.05964 157 148 140
0.09914 0.42990 -1.06933 95 72 67
0.09955 0.42990 -1.06928 82 48 51
0.09996 0.42989 -1.06919 86 48 55
0.10037 0.42988 -1.06917 104 67 75
0.10079 0.42995 -1.06974 137 109 109
0.10120 0.42995 -1.06975 154 139 128
0.10161 0.42995 -1.06974 156 148 136
0.10202 0.42953 -1.06966 154 151 136
0.07672 0.42847 -1.06037 135 122 105
0.07634 0.42810 -1.06045 132 121 103
0.07708 0.42808 -1.06029 145 131 110
0.09913 0.42947 -1.06921 95 73 68
0.09954 0.42946 -1.06912 82 47 55
0.09995 0.42945 -1.06903 87 45 55
0.10035 0.42945 -1.06898 104 65 71
0.10078 0.42954 -1.06980 134 108 103
0.10119 0.42954 -1.06979 152 139 125
0.10161 0.42953 -1.06974 154 149 133
0.10201 0.42911 -1.06966 152 153 135
0.09912 0.42907 -1.06928 94 77 68
0.09953 0.42907 -1.06931 80 51 56
0.09994 0.42906 -1.06923 84 48 57
0.10035 0.42906 -1.06926 102 65 71
0.10078 0.42914 -1.06994 133 107 103
0.10118 0.42871 -1.06986 151 140 124
0.10119 0.42912 -1.06978 152 142 128
0.10159 0.42870 -1.06970 152 151 130
0.10160 0.42912 -1.06974 152 152 133
0.10200 0.42869 -1.06966 151 153 132
0.09912 0.42868 -1.06954 93 75 63
0.09953 0.42866 -1.06938 79 51 47
0.09993 0.42865 -1.06929 83 50 48
0.10034 0.42866 -1.06933 101 67 67
0.10078 0.42878 -1.07045 132 107 100
0.10118 0.42835 -1.07036 150 138 120
0.09911 0.42827 -1.06956 94 75 65
0.09952 0.42825 -1.06944 80 51 46
0.09993 0.42828 -1.06966 81 47 42
0.10034 0.42827 -1.06962 100 67 61
0.10078 0.42838 -1.07070 130 107 97
0.10118 0.42796 -1.07061 150 139 124
0.09910 0.42787 -1.06972 94 76 66
0.09951 0.42750 -1.07024 79 51 48
0.09992 0.42751 -1.07026 80 46 46
0.10034 0.42754 -1.07064 99 64 62
0.10078 0.42764 -1.07159 131 105 99
0.10119 0.42720 -1.07151 148 136 120
0.09910 0.42713 -1.07062 94 74 67
0.09951 0.42711 -1.07051 78 49 45
0.09993 0.42717 -1.07106 80 44 44
0.10034 0.42716 -1.07098 98 61 62
0.10078 0.42724 -1.07187 130 102 96
0.09909 0.42671 -1.07065 93 76 65
0.09950 0.42673 -1.07086 77 51 45
0.09991 0.42672 -1.07077 79 48 45
0.10034 0.42677 -1.07138 98 63 62
0.10077 0.42683 -1.07202 129 101 94
0.10115 0.42668 -1.07043 148 135 116
0.10157 0.42709 -1.07034 149 145 126
0.10156 0.42667 -1.07034 147 146 124
0.10198 0.42708 -1.07024 149 147 127
0.10197 0.42666 -1.07025 145 147 126
0.10196 0.42624 -1.07025 145 145 128
0.11151 0.42652 -1.06910 138 137 118
0.11110 0.42695 -1.06918 105 107 97
0.11110 0.42653 -1.06919 107 108 94
0.11109 0.42611 -1.06919 109 111 96
0.11193 0.42693 -1.06901 146 148 125
0.11190 0.42648 -1.06874 145 148 122
0.11232 0.42689 -1.06865 134 133 116
0.11229 0.42646 -1.06848 125 128 111
0.11271 0.42687 -1.06839 112 114 100
0.11269 0.42643 -1.06821 108 110 99
0.11311 0.42684 -1.06812 112 113 100
0.11311 0.42643 -1.06820 112 115 104
0.11353 0.42684 -1.06811 125 125 108
0.11352 0.42642 -1.06811 124 127 113
0.11394 0.42683 -1.06802 128 130 109
0.11393 0.42641 -1.06803 127 130 111
0.09909 0.42634 -1.07118 91 76 63
0.09950 0.42635 -1.07129 76 52 47
0.09991 0.42634 -1.07120 80 49 52
0.10034 0.42638 -1.07164 97 63 66
0.10077 0.42645 -1.07245 126 100 94
0.10114 0.42629 -1.07069 146 135 118
0.10156 0.42627 -1.07055 147 145 127
0.10196 0.42584 -1.07046 145 144 126
0.11157 0.42617 -1.06986 138 138 119
0.11115 0.42575 -1.06996 117 121 102
0.11198 0.42615 -1.06968 139 142 119
0.11236 0.42610 -1.06922 116 119 101
0.11275 0.42608 -1.06894 105 108 99
0.11317 0.42607 -1.06885 107 112 106
0.11360 0.42607 -1.06895 119 122 109
0.11407 0.42611 -1.06937 128 131 114
0.11450 0.42652 -1.06928 129 131 110
0.11449 0.42610 -1.06928 131 133 114
0.09908 0.42593 -1.07132 91 75 62
0.09949 0.42594 -1.07140 77 51 48
0.09991 0.42593 -1.07131 80 46 52
0.10033 0.42596 -1.07171 97 61 66
0.10077 0.42604 -1.07257 126 99 92
0.10114 0.42588 -1.07080 147 134 116
0.10155 0.42586 -1.07062 147 143 125
0.10195 0.42543 -1.07054 146 141 121
0.10854 0.42568 -1.06898 145 142 122
0.10814 0.42611 -1.06906 135 134 117
0.10813 0.42569 -1.06906 134 134 114
0.10812 0.42527 -1.06907 136 131 113
0.10855 0.42610 -1.06897 146 144 127
0.10896 0.42568 -1.06905 151 153 128
0.10939 0.42609 -1.06896 154 158 132
0.10938 0.42567 -1.06896 153 158 130
0.10937 0.42526 -1.06897 153 158 132
0.11163 0.42581 -1.07058 137 140 119
0.11120 0.42539 -1.07067 138 141 117
0.11201 0.42576 -1.07010 132 135 116
0.11240 0.42573 -1.06977 106 108 96
0.11281 0.42530 -1.06969 98 100 93
0.11282 0.42572 -1.06967 100 101 94
0.11323 0.42571 -1.06958 101 103 98
0.11368 0.42573 -1.06980 112 113 104
0.11414 0.42575 -1.07011 128 130 114
0.11462 0.42579 -1.07055 132 133 116
0.11505 0.42621 -1.07046 132 134 115
0.11504 0.42578 -1.07046 134 134 116
0.09907 0.42552 -1.07140 92 75 63
0.09949 0.42553 -1.07150 78 50 49
0.09990 0.42552 -1.07141 80 44 52
0.10032 0.42554 -1.07176 97 60 64
0.10076 0.42561 -1.07258 127 99 92
0.10113 0.42547 -1.07100 146 132 113
0.10154 0.42545 -1.07079 147 141 119
0.10195 0.42502 -1.07070 147 140 122
0.10859 0.42533 -1.06981 145 141 119
0.10817 0.42492 -1.06990 136 132 114
0.10902 0.42534 -1.06991 151 152 130
0.10943 0.42491 -1.06983 154 155 136
0.11168 0.42543 -1.07117 137 140 117
0.11125 0.42502 -1.07127 153 156 132
0.11205 0.42538 -1.07062 121 124 108
0.11246 0.42537 -1.07044 99 102 94
0.11287 0.42493 -1.07036 96 99 92
0.11331 0.42536 -1.07042 101 102 97
0.11378 0.42538 -1.07075 108 109 101
0.11424 0.42541 -1.07107 124 125 107
0.11470 0.42543 -1.07135 129 129 107
0.11518 0.42546 -1.07170 130 131 106
0.11561 0.42588 -1.07161 134 134 115
0.11560 0.42545 -1.07161 132 131 109
0.11559 0.42502 -1.07162 128 127 98
0.08415 0.42510 -1.07035 152 145 131
0.08376 0.42552 -1.07043 145 138 127
0.08375 0.42511 -1.07044 143 135 123
0.08456 0.42550 -1.07026 156 148 134
0.08456 0.42509 -1.07027 156 148 133
0.08455 0.42469 -1.07027 154 148 135
0.09906 0.42510 -1.07141 93 74 61
0.09948 0.42510 -1.07147 78 48 44
0.09989 0.42509 -1.07138 81 43 47
0.10031 0.42511 -1.07165 96 59 61
0.10075 0.42518 -1.07252 128 98 92
0.10113 0.42507 -1.07121 146 131 114
0.10154 0.42505 -1.07101 147 140 120
0.10194 0.42462 -1.07093 145 142 126
0.10775 0.42493 -1.06996 141 141 120
0.10735 0.42536 -1.07004 147 143 128
0.10734 0.42494 -1.07005 147 145 127
0.10816 0.42450 -1.06987 134 131 114
0.10865 0.42499 -1.07072 145 140 120
0.10864 0.42456 -1.07073 145 138 122
0.10906 0.42455 -1.07064 151 149 132
0.10909 0.42500 -1.07093 151 151 130
0.10950 0.42457 -1.07084 154 152 137
0.11170 0.42504 -1.07156 138 141 121
0.11128 0.42462 -1.07165 154 159 132
0.11207 0.42498 -1.07087 113 115 105
0.11247 0.42496 -1.07068 95 100 94
0.11288 0.42452 -1.07060 95 97 91
0.11335 0.42497 -1.07084 100 101 93
0.11381 0.42499 -1.07116 107 109 90
0.11427 0.42501 -1.07146 122 121 96
0.11469 0.42458 -1.07138 127 122 94
0.11474 0.42503 -1.07174 126 125 97
0.11515 0.42459 -1.07166 128 123 95
0.11520 0.42505 -1.07200 127 126 98
0.11562 0.42461 -1.07191 128 123 94
0.08250 0.42476 -1.07106 158 150 134
0.08211 0.42518 -1.07114 161 154 138
0.08210 0.42477 -1.07115 160 153 139
0.08209 0.42436 -1.07115 161 151 139
0.08251 0.42517 -1.07106 159 152 134
0.08292 0.42516 -1.07097 149 141 124
0.08291 0.42475 -1.07091 151 142 125
0.08332 0.42515 -1.07082 139 131 118
0.08332 0.42474 -1.07082 141 133 120
0.08331 0.42433 -1.07082 142 134 120
0.08375 0.42470 -1.07039 142 135 124
0.08417 0.42467 -1.07005 150 144 133
0.08456 0.42425 -1.06996 153 147 137
0.09905 0.42468 -1.07141 93 73 62
0.09947 0.42468 -1.07145 77 47 42
0.09988 0.42468 -1.07148 80 44 43
0.10030 0.42469 -1.07157 94 60 57
0.10073 0.42474 -1.07228 126 99 90
0.10112 0.42466 -1.07132 146 133 119
0.10154 0.42464 -1.07113 147 142 126
0.10194 0.42421 -1.07104 143 142 125
0.10737 0.42456 -1.07058 146 145 126
0.10696 0.42499 -1.07066 148 145 131
0.10695 0.42457 -1.07066 146 145 133
0.10694 0.42415 -1.07067 144 143 125
0.10779 0.42456 -1.07059 141 139 119
0.10820 0.42413 -1.07050 133 129 113
0.11172 0.42463 -1.07180 135 138 119
0.11129 0.42421 -1.07190 155 158 133
0.11206 0.42455 -1.07086 107 109 100
0.11247 0.42454 -1.07075 94 99 95
0.11288 0.42410 -1.07066 96 97 87
0.11335 0.42455 -1.07097 99 99 91
0.11382 0.42458 -1.07133 108 108 89
0.11429 0.42460 -1.07165 122 119 93
0.07668 0.42373 -1.06247 134 121 104
0.07631 0.42412 -1.06254 131 120 102
0.07630 0.42374 -1.06255 130 119 100
0.07629 0.42335 -1.06255 130 118 102
0.07669 0.42411 -1.06246 135 122 108
0.07706 0.42410 -1.06238 144 131 118
0.07702 0.42374 -1.06261 143 130 114
0.07741 0.42411 -1.06253 150 139 127
0.07738 0.42374 -1.06270 150 138 124
0.07776 0.42412 -1.06262 152 142 129
0.07775 0.42373 -1.06262 151 141 129
0.07775 0.42335 -1.06262 151 142 129
0.08251 0.42434 -1.07089 158 150 136
0.08210 0.42394 -1.07098 160 150 136
0.08250 0.42393 -1.07089 157 150 134
0.08292 0.42432 -1.07072 151 143 127
0.08376 0.42427 -1.07016 142 134 124
0.08419 0.42424 -1.06976 150 143 134
0.09904 0.42424 -1.07119 93 74 63
0.09946 0.42426 -1.07140 76 46 43
0.09987 0.42426 -1.07145 79 44 41
0.10029 0.42426 -1.07149 95 61 57
0.10072 0.42431 -1.07217 124 99 89
0.10112 0.42425 -1.07143 144 133 119
0.10153 0.42423 -1.07129 145 142 126
0.10194 0.42380 -1.07120 143 141 126
0.10741 0.42420 -1.07135 144 142 122
0.10698 0.42378 -1.07144 143 143 126
0.10740 0.42377 -1.07135 143 142 122
0.10783 0.42419 -1.07127 139 135 119
0.10824 0.42375 -1.07119 132 130 114
0.11169 0.42419 -1.07166 133 136 113
0.11203 0.42411 -1.07067 105 107 91
0.11244 0.42410 -1.07055 97 99 88
0.11285 0.42366 -1.07046 99 97 77
0.11334 0.42412 -1.07092 101 99 88
0.11333 0.42369 -1.07093 104 100 78
0.11375 0.42368 -1.07084 112 106 82
0.11382 0.42416 -1.07143 111 107 88
0.11423 0.42372 -1.07134 118 114 87
0.11430 0.42419 -1.07187 121 116 92
0.11471 0.42375 -1.07178 121 116 90
0.07665 0.42335 -1.06260 134 120 103
0.07627 0.42298 -1.06268 130 117 104
0.07700 0.42336 -1.06275 142 128 112
0.07735 0.42337 -1.06287 149 137 123
0.07772 0.42298 -1.06279 150 144 129
0.08292 0.42391 -1.07060 149 144 125
0.08251 0.42351 -1.07069 158 151 134
0.08334 0.42388 -1.07036 140 134 115
0.08376 0.42386 -1.07003 141 134 119
0.08419 0.42382 -1.06962 150 142 129
0.08460 0.42380 -1.06940 154 146 136
0.08501 0.42420 -1.06931 154 148 133
0.08500 0.42379 -1.06932 153 147 136
0.08499 0.42339 -1.06932 154 146 132
0.09903 0.42384 -1.07135 91 73 61
0.09945 0.42385 -1.07155 75 46 42
0.09986 0.42385 -1.07155 78 41 42
0.10028 0.42385 -1.07169 94 57 60
0.10072 0.42391 -1.07247 122 96 93
0.10112 0.42385 -1.07169 143 130 119
0.10153 0.42384 -1.07167 144 139 125
0.10194 0.42341 -1.07158 142 140 127
0.10787 0.42382 -1.07206 138 137 119
0.10744 0.42340 -1.07215 141 143 122
0.10828 0.42338 -1.07197 130 131 114
0.11135 0.42384 -1.07265 156 155 131
0.11093 0.42428 -1.07273 160 164 141
0.11092 0.42385 -1.07274 161 162 140
0.11091 0.42342 -1.07274 162 162 139
0.11165 0.42374 -1.07131 131 132 106
0.11200 0.42367 -1.07052 105 105 87
0.11241 0.42324 -1.07043 99 98 80
0.11242 0.42367 -1.07046 97 99 81
0.11283 0.42323 -1.07037 102 97 77
0.07665 0.42297 -1.06256 134 120 105
0.07627 0.42259 -1.06264 128 118 102
0.07699 0.42298 -1.06273 141 128 112
0.07734 0.42299 -1.06288 148 138 122
0.07771 0.42259 -1.06280 150 143 127
0.08292 0.42349 -1.07055 148 144 124
0.08334 0.42347 -1.07031 138 134 112
0.08373 0.42305 -1.07023 140 133 116
0.08376 0.42344 -1.06998 139 134 113
0.08418 0.42341 -1.06958 150 140 124
0.08458 0.42300 -1.06950 155 144 131
0.08459 0.42339 -1.06937 154 144 131
0.08498 0.42298 -1.06929 153 146 130
0.09902 0.42340 -1.07117 89 72 57
0.09944 0.42344 -1.07168 74 47 37
0.09986 0.42346 -1.07201 77 41 38
0.10028 0.42345 -1.07192 93 56 57
0.10071 0.42350 -1.07271 122 94 92
0.10112 0.42345 -1.07204 142 127 119
0.10153 0.42344 -1.07195 143 137 125
0.10194 0.42301 -1.07187 140 140 125
0.11134 0.42341 -1.07263 155 154 127
0.11090 0.42299 -1.07272 161 162 139
0.11161 0.42328 -1.07095 130 131 103
0.11197 0.42323 -1.07030 104 105 86
0.11238 0.42280 -1.07021 101 98 81
0.07666 0.42258 -1.06242 132 121 104
0.07628 0.42220 -1.06250 127 120 100
0.07700 0.42259 -1.06261 138 129 112
0.07734 0.42260 -1.06280 146 139 121
0.07771 0.42220 -1.06273 151 141 128
0.08250 0.42310 -1.07072 158 150 134
0.08211 0.42352 -1.07080 160 150 134
0.08210 0.42311 -1.07081 159 150 135
0.08209 0.42270 -1.07081 157 149 136
0.08249 0.42269 -1.07073 156 149 134
0.08291 0.42309 -1.07056 150 144 126
0.08332 0.42307 -1.07034 139 134 116
0.08418 0.42301 -1.06958 150 140 126
0.08457 0.42259 -1.06950 153 144 132
0.09901 0.42299 -1.07121 91 72 59
0.09944 0.42303 -1.07185 74 46 37
0.09986 0.42306 -1.07232 78 41 35
0.10028 0.42305 -1.07224 94 57 53
0.10071 0.42310 -1.07298 121 94 88
0.10111 0.42305 -1.07235 142 128 119
0.10153 0.42303 -1.07220 143 138 126
0.10194 0.42260 -1.07211 140 140 124
0.11135 0.42299 -1.07285 153 154 129
0.11091 0.42257 -1.07294 160 161 136
0.11134 0.42256 -1.07286 152 152 132
0.11163 0.42288 -1.07126 130 131 104
0.11204 0.42244 -1.07118 107 103 85
0.11204 0.42286 -1.07106 105 105 85
0.11245 0.42243 -1.07098 102 98 80
0.07666 0.42219 -1.06238 130 122 103
0.07627 0.42182 -1.06246 127 120 100
0.07699 0.42220 -1.06260 136 128 111
0.07733 0.42221 -1.06279 145 137 121
0.08289 0.42269 -1.07069 150 143 126
0.08330 0.42267 -1.07050 140 133 118
0.08372 0.42264 -1.07018 139 131 119
0.08416 0.42261 -1.06966 149 138 128
0.08455 0.42219 -1.06958 151 143 128
0.09819 0.42267 -1.07265 130 125 105
0.09776 0.42226 -1.07274 129 126 107
0.09861 0.42269 -1.07298 120 112 91
0.09901 0.42258 -1.07138 91 71 59
0.09941 0.42215 -1.07129 75 45 39
0.09944 0.42268 -1.07290 74 42 36
0.09985 0.42224 -1.07281 78 40 39
0.09986 0.42267 -1.07281 79 39 35
0.10027 0.42223 -1.07273 92 57 54
0.10028 0.42266 -1.07272 93 55 52
0.10068 0.42222 -1.07264 119 94 84
0.10071 0.42271 -1.07356 121 93 86
0.10112 0.42227 -1.07347 138 127 109
0.10112 0.42266 -1.07292 140 127 114
0.10153 0.42223 -1.07284 139 138 120
0.10154 0.42265 -1.07280 141 137 122
0.10195 0.42222 -1.07272 140 141 126
0.11166 0.42248 -1.07175 130 130 109
0.11123 0.42207 -1.07185 151 152 131
0.11166 0.42206 -1.07176 129 129 110
0.11208 0.42205 -1.07167 105 103 84
0.07663 0.42182 -1.06252 130 122 105
0.07625 0.42144 -1.06261 126 118 100
0.07697 0.42182 -1.06269 135 127 113
0.07732 0.42183 -1.06282 145 135 124
0.07768 0.42183 -1.06285 151 140 132
0.07807 0.42220 -1.06276 151 142 132
0.07806 0.42182 -1.06277 151 141 134
0.07805 0.42143 -1.06277 150 142 133
0.08244 0.42231 -1.07114 157 147 136
0.08204 0.42232 -1.07123 157 147 137
0.08203 0.42191 -1.07123 158 147 136
0.08286 0.42229 -1.07095 150 142 127
0.08327 0.42227 -1.07072 139 132 116
0.08367 0.42186 -1.07064 136 129 113
0.08370 0.42225 -1.07040 137 128 116
0.08413 0.42221 -1.06990 146 136 125
0.08452 0.42180 -1.06982 149 143 122
0.09818 0.42223 -1.07234 128 125 104
0.09859 0.42222 -1.07226 119 113 92
0.09900 0.42216 -1.07144 89 73 59
0.09940 0.42173 -1.07136 72 46 38
0.07660 0.42144 -1.06268 130 120 102
0.07622 0.42107 -1.06276 126 115 99
0.07696 0.42144 -1.06273 136 124 110
0.07732 0.42144 -1.06276 145 134 124
0.07770 0.42143 -1.06270 151 141 133
0.07807 0.42104 -1.06262 151 142 133
0.08241 0.42192 -1.07138 157 146 132
0.08200 0.42152 -1.07147 158 146 131
0.08240 0.42151 -1.07139 157 145 129
0.08281 0.42150 -1.07130 150 140 121
0.08283 0.42190 -1.07119 150 142 121
0.08322 0.42148 -1.07111 139 131 113
0.08325 0.42188 -1.07091 139 133 111
0.08364 0.42146 -1.07083 137 129 113
0.09775 0.42183 -1.07262 126 124 106
0.09735 0.42226 -1.07270 131 128 107
0.09734 0.42184 -1.07271 127 125 107
0.09817 0.42181 -1.07238 126 123 101
0.09858 0.42179 -1.07219 117 113 89
0.09897 0.42168 -1.07036 87 75 57
0.09938 0.42125 -1.07027 72 43 35
0.07656 0.42108 -1.06291 129 117 98
0.07617 0.42070 -1.06299 127 116 95
0.07655 0.42069 -1.06292 129 118 95
0.07694 0.42107 -1.06284 135 123 104
0.07732 0.42106 -1.06274 144 132 118
0.07771 0.42104 -1.06252 151 139 130
0.07808 0.42065 -1.06244 151 142 131
0.09774 0.42141 -1.07262 123 120 100
0.09816 0.42139 -1.07243 123 120 97
0.09857 0.42138 -1.07224 115 109 85
0.09897 0.42129 -1.07082 88 72 53
0.09937 0.42086 -1.07073 73 42 34
0.07694 0.42068 -1.06279 134 123 102
0.07655 0.42031 -1.06288 128 120 92
0.07733 0.42066 -1.06255 142 131 117
0.07774 0.42064 -1.06227 148 138 128
0.07811 0.42025 -1.06219 150 139 127
0.09650 0.42090 -1.07077 122 116 96
0.09608 0.42049 -1.07086 112 109 92
0.09649 0.42048 -1.07078 113 108 93
0.09690 0.42047 -1.07069 115 110 92
0.09691 0.42093 -1.07156 123 118 98
0.09731 0.42051 -1.07147 114 111 90
0.09773 0.42097 -1.07231 119 115 93
0.09856 0.42093 -1.07186 112 103 79
0.07695 0.42029 -1.06260 132 124 100
0.07657 0.41991 -1.06268 127 119 96
0.07695 0.41990 -1.06260 131 122 101
0.07732 0.41989 -1.06252 138 126 111
0.07737 0.42026 -1.06224 139 129 114
0.07774 0.41987 -1.06216 145 134 121
0.07777 0.42024 -1.06196 147 136 125
0.07814 0.41985 -1.06188 149 139 125
0.09814 0.42052 -1.07195 111 105 86
0.09771 0.42011 -1.07204 102 100 82
0.09855 0.42050 -1.07162 107 97 80
0.09896 0.42049 -1.07160 85 64 54
0.09813 0.42011 -1.07213 102 97 80
0.09771 0.41970 -1.07223 90 87 73
0.09854 0.42007 -1.07142 100 89 74
0.09896 0.42011 -1.07239 81 63 51
0.09938 0.42012 -1.07273 72 44 37
0.09981 0.42054 -1.07264 76 39 38
0.09980 0.42011 -1.07264 75 42 36
0.09979 0.41969 -1.07265 75 40 32
0.10024 0.42017 -1.07385 85 49 41
0.10025 0.42060 -1.07385 89 50 48
0.10067 0.42059 -1.07376 112 81 71
0.10069 0.42022 -1.07499 106 74 63
0.10112 0.42064 -1.07489 125 108 91
0.10113 0.42025 -1.07562 114 96 82
0.10157 0.42067 -1.07552 123 117 98
0.10155 0.42022 -1.07521 111 104 87
0.10198 0.42064 -1.07512 123 120 100
0.10197 0.42020 -1.07493 110 105 89
0.10240 0.42062 -1.07484 126 121 102
0.10239 0.42019 -1.07484 112 106 91
0.10238 0.41976 -1.07485 97 90 75
0.10832 0.42005 -1.07353 116 114 93
0.10790 0.42049 -1.07362 127 123 102
0.10789 0.42006 -1.07362 118 116 93
0.10833 0.42048 -1.07353 123 118 101
0.10875 0.42047 -1.07344 133 131 117
0.10881 0.42009 -1.07439 132 128 109
0.10925 0.42051 -1.07430 142 144 124
0.10924 0.42008 -1.07430 142 141 119
0.10923 0.41964 -1.07430 138 134 112
0.09812 0.41969 -1.07209 90 85 72
0.09770 0.41927 -1.07218 80 77 66
0.09811 0.41927 -1.07209 80 74 66
0.09852 0.41926 -1.07200 78 68 60
0.09853 0.41967 -1.07180 88 78 64
0.09896 0.41970 -1.07261 76 58 44
0.09938 0.41971 -1.07290 71 43 34
0.09979 0.41927 -1.07281 75 36 34
0.10023 0.41973 -1.07357 83 44 35
0.10067 0.41976 -1.07440 99 65 55
0.10111 0.41980 -1.07530 102 85 73
0.10155 0.41980 -1.07546 98 90 78
0.10197 0.41978 -1.07523 96 89 77
0.10238 0.41934 -1.07514 88 80 67
0.10785 0.41960 -1.07312 108 103 89
0.10744 0.42004 -1.07321 119 118 95
0.10743 0.41961 -1.07321 108 105 87
0.10832 0.41962 -1.07367 108 102 92
0.10881 0.41966 -1.07448 127 121 105
0.10923 0.41921 -1.07440 122 119 101
0.08282 0.41942 -1.07068 149 142 120
0.08243 0.41983 -1.07076 155 145 124
0.08242 0.41943 -1.07076 155 146 125
0.08241 0.41902 -1.07077 154 148 129
0.08283 0.41982 -1.07067 149 141 118
0.08323 0.41982 -1.07059 139 130 112
0.08323 0.41940 -1.07054 139 132 114
0.08364 0.41980 -1.07045 135 125 112
0.08363 0.41940 -1.07046 134 126 112
0.08362 0.41899 -1.07046 132 125 112
0.09895 0.41927 -1.07247 72 52 46
0.09852 0.41886 -1.07256 77 67 59
0.09937 0.41928 -1.07290 70 39 36
0.09978 0.41885 -1.07282 76 34 35
0.10022 0.41930 -1.07347 82 41 39
0.10065 0.41932 -1.07404 91 59 51
0.10110 0.41935 -1.07493 92 76 64
0.10151 0.41891 -1.07485 86 77 60
0.10153 0.41935 -1.07514 87 80 68
0.10194 0.41891 -1.07505 87 80 63
0.10196 0.41936 -1.07534 87 80 68
0.10238 0.41891 -1.07525 88 80 66
0.10787 0.41919 -1.07349 99 93 83
0.10834 0.41921 -1.07410 99 92 86
0.10881 0.41923 -1.07468 114 107 96
0.08287 0.41898 -1.07008 150 144 125
0.08246 0.41858 -1.07016 153 145 130
0.08326 0.41898 -1.07006 139 132 117
0.08366 0.41856 -1.06998 131 123 110
0.09893 0.41884 -1.07237 71 51 46
0.09851 0.41843 -1.07246 81 72 60
0.09936 0.41886 -1.07293 70 38 36
0.09977 0.41843 -1.07284 77 35 34
0.10021 0.41887 -1.07339 82 41 39
0.10064 0.41888 -1.07391 89 59 48
0.10108 0.41890 -1.07450 89 73 55
0.10839 0.41881 -1.07493 95 89 77
0.10838 0.41838 -1.07494 99 89 76
0.10881 0.41837 -1.07485 103 92 79
0.10885 0.41882 -1.07530 102 94 85
0.10927 0.41838 -1.07521 104 96 78
0.10928 0.41881 -1.07524 105 101 87
0.10972 0.41924 -1.07515 122 122 100
0.10970 0.41837 -1.07515 105 99 74
0.08294 0.41854 -1.06927 150 142 127
0.08253 0.41815 -1.06936 153 143 128
0.08332 0.41854 -1.06934 139 131 118
0.08371 0.41812 -1.06926 130 124 105
0.09893 0.41842 -1.07243 71 53 43
0.09850 0.41801 -1.07252 84 75 60
0.09892 0.41800 -1.07243 73 54 42
0.09935 0.41843 -1.07281 70 39 33
0.09976 0.41800 -1.07272 76 35 33
0.10019 0.41843 -1.07316 84 42 37
0.10062 0.41845 -1.07363 94 61 49
0.10106 0.41846 -1.07426 94 76 56
0.10149 0.41847 -1.07458 92 83 60
0.10191 0.41803 -1.07450 95 88 66
0.10193 0.41848 -1.07512 92 85 62
0.10235 0.41804 -1.07503 95 88 69
0.07707 0.41794 -1.06142 127 116 103
0.07671 0.41833 -1.06150 124 116 95
0.07670 0.41795 -1.06150 125 114 98
0.07669 0.41757 -1.06150 124 113 98
0.07708 0.41832 -1.06142 127 119 99
0.07745 0.41831 -1.06134 133 126 105
0.07746 0.41793 -1.06126 134 124 110
0.07784 0.41830 -1.06117 140 135 112
0.07783 0.41792 -1.06120 140 134 117
0.07821 0.41829 -1.06112 145 141 119
0.07820 0.41791 -1.06112 144 140 121
0.08300 0.41811 -1.06846 149 140 124
0.08260 0.41771 -1.06855 151 143 126
0.08338 0.41810 -1.06857 138 132 115
0.08377 0.41769 -1.06849 129 124 104
0.09934 0.41801 -1.07278 71 39 32
0.09891 0.41759 -1.07287 75 53 41
0.09975 0.41757 -1.07269 76 36 36
0.10018 0.41800 -1.07302 84 40 37
0.10061 0.41801 -1.07346 96 60 53
0.10105 0.41803 -1.07413 100 79 64
0.10148 0.41804 -1.07454 95 86 66
0.10190 0.41760 -1.07445 96 89 73
0.07707 0.41756 -1.06138 126 115 101
0.07669 0.41719 -1.06146 123 115 96
0.07706 0.41718 -1.06139 125 115 99
0.07743 0.41717 -1.06131 130 120 105
0.07745 0.41755 -1.06126 132 122 108
0.07781 0.41716 -1.06118 138 131 114
0.07782 0.41754 -1.06120 140 132 118
0.07818 0.41715 -1.06112 145 138 123
0.08307 0.41768 -1.06771 148 140 121
0.08266 0.41729 -1.06780 152 143 127
0.08342 0.41768 -1.06807 138 132 112
0.08381 0.41727 -1.06799 129 122 107
0.09933 0.41758 -1.07273 72 38 33
0.09890 0.41717 -1.07282 75 55 40
0.10017 0.41757 -1.07291 83 41 38
0.10060 0.41758 -1.07326 96 61 53
0.10104 0.41760 -1.07405 102 82 69
0.10147 0.41761 -1.07450 97 88 73
0.10188 0.41717 -1.07442 98 91 76
0.08311 0.41726 -1.06712 148 140 124
0.08271 0.41687 -1.06721 152 143 128
0.08344 0.41727 -1.06769 139 131 115
0.08383 0.41686 -1.06762 129 120 106
0.09932 0.41716 -1.07262 70 39 31
0.09889 0.41674 -1.07271 77 56 39
0.09973 0.41715 -1.07259 74 36 34
