ply
format ascii 1.0
element face 0
property list uchar int vertex_indices
element vertex 1302
property float x
property float y
property float z
property uchar diffuse_red
property uchar diffuse_green
property uchar diffuse_blue
end_header
0.00000 0.00000 0.00000 255 255 255
0.00396 0.00231 -0.00112 255 255 255
0.00386 0.00389 -0.00098 255 255 255
0.00450 0.00611 -0.00105 255 255 255
0.00412 0.00876 -0.00088 255 255 255
0.00433 0.01270 -0.00057 0 0 0
0.00403 0.01498 -0.00003 0 0 0
0.00257 0.01503 0.00069 0 0 0
0.00124 0.01353 0.00102 0 0 0
0.00036 0.01318 0.00109 0 0 0
0.00012 0.01210 0.00147 0 0 0
-0.00040 0.01004 0.00154 0 0 0
0.00073 0.00746 0.00121 0 0 0
0.00212 0.00696 0.00071 0 0 0
0.00311 0.00609 0.00074 0 0 0
0.00319 0.00313 0.00071 0 0 0
0.00432 -0.00049 0.00052 0 0 0
0.00316 -0.00462 -0.00075 0 0 0
0.00251 -0.00589 -0.00176 0 0 0
0.00249 -0.00626 -0.00262 0 0 0
0.00379 -0.00539 -0.00355 0 0 0
0.00312 -0.00430 -0.00398 0 0 0
0.00429 -0.00261 -0.00438 0 0 0
0.00539 0.00051 -0.00440 0 0 0
0.00468 0.00490 -0.00350 0 0 0
0.00549 0.00619 -0.00228 0 0 0
0.00425 0.00771 -0.00124 0 0 0
0.00110 0.00717 -0.00034 0 0 0
-0.00497 0.00436 -0.00032 0 0 0
-0.00763 0.00532 -0.00112 0 0 0
-0.00794 0.00829 -0.00201 0 0 0
-0.00829 0.01319 -0.00265 0 0 0
-0.00927 0.01692 -0.00258 0 0 0
-0.00916 0.01986 -0.00235 0 0 0
-0.01009 0.02092 -0.00186 0 0 0
-0.01093 0.02112 -0.00143 0 0 0
-0.01234 0.02259 -0.00098 0 0 0
-0.01507 0.01958 -0.00052 0 0 0
-0.01296 0.02116 -0.00180 0 0 0
-0.01088 0.02572 -0.00056 0 0 0
-0.01255 0.02164 -0.00011 0 0 0
-0.01245 0.02271 0.00012 0 0 0
-0.01750 0.01729 0.00012 0 0 0
-0.01905 0.01768 -0.00065 0 0 0
-0.01982 0.01593 -0.00105 0 0 0
-0.01702 0.01683 -0.00238 0 0 0
-0.01470 0.01891 -0.00197 0 0 0
-0.01542 0.01601 -0.00182 0 0 0
-0.01220 0.01641 -0.00235 0 0 0
-0.01227 0.01540 -0.00168 0 0 0
-0.01215 0.01207 -0.00168 0 0 0
-0.01016 0.01135 -0.00248 0 0 0
-0.00812 0.01247 -0.00283 0 0 0
-0.00827 0.01243 -0.00292 0 0 0
-0.00719 0.01319 -0.00284 0 0 0
-0.00856 0.01100 -0.00247 0 0 0
-0.01088 0.01052 -0.00281 0 0 0
-0.01298 0.01018 -0.00298 0 0 0
-0.01325 0.00960 -0.00325 0 0 0
-0.01185 0.01051 -0.00345 0 0 0
-0.01055 0.01088 -0.00346 0 0 0
-0.01071 0.01039 -0.00360 0 0 0
-0.01112 0.01049 -0.00343 0 0 0
-0.01295 0.00831 -0.00354 0 0 0
-0.01251 0.00891 -0.00349 0 0 0
-0.01254 0.00720 -0.00389 0 0 0
-0.01116 0.00732 -0.00418 0 0 0
-0.01039 0.00693 -0.00441 0 0 0
-0.00977 0.00763 -0.00431 0 0 0
-0.01044 0.00542 -0.00410 0 0 0
-0.01063 0.00511 -0.00438 0 0 0
-0.00801 0.00731 -0.00439 0 0 0
-0.00816 0.00610 -0.00380 0 0 0
-0.00517 0.00607 -0.00396 0 0 0
-0.00454 0.00531 -0.00368 0 0 0
-0.00454 0.00616 -0.00401 0 0 0
-0.00564 0.00535 -0.00362 0 0 0
-0.00685 0.00270 -0.00410 0 0 0
-0.00374 0.00783 -0.00446 0 0 0
-0.00910 0.00412 -0.00351 0 0 0
-0.01112 0.00470 -0.00431 0 0 0
-0.01259 0.00585 -0.00419 0 0 0
-0.01112 0.00526 -0.00488 0 0 0
-0.00986 0.00866 -0.00468 0 0 0
-0.01020 0.00764 -0.00429 0 0 0
-0.01134 0.00628 -0.00405 0 0 0
-0.01191 0.00575 -0.00471 0 0 0
-0.01013 0.00719 -0.00485 0 0 0
-0.01132 0.00591 -0.00472 0 0 0
-0.01181 0.00572 -0.00513 0 0 0
-0.01115 0.00724 -0.00563 0 0 0
-0.01016 0.00775 -0.00507 0 0 0
-0.00834 0.00727 -0.00511 0 0 0
-0.00596 0.00747 -0.00465 0 0 0
-0.00535 0.00498 -0.00473 0 0 0
-0.00516 0.00695 -0.00468 0 0 0
-0.00852 0.00356 -0.00412 0 0 0
-0.00955 0.00365 -0.00457 0 0 0
-0.00799 0.00299 -0.00471 0 0 0
-0.00687 0.00385 -0.00501 0 0 0
-0.00618 0.00284 -0.00498 0 0 0
-0.00621 0.00325 -0.00509 0 0 0
-0.01070 0.00099 -0.00462 0 0 0
-0.01284 -0.00051 -0.00550 0 0 0
-0.01248 0.00016 -0.00622 0 0 0
-0.00991 0.00200 -0.00713 0 0 0
-0.00752 0.00471 -0.00648 0 0 0
-0.01069 0.00352 -0.00613 0 0 0
-0.01189 0.00432 -0.00590 0 0 0
-0.01126 0.00406 -0.00604 0 0 0
-0.00813 0.00608 -0.00615 0 0 0
-0.00889 0.00536 -0.00530 0 0 0
-0.00963 0.00400 -0.00524 0 0 0
-0.01120 0.00366 -0.00497 0 0 0
-0.01386 0.00236 -0.00529 0 0 0
-0.01647 0.00216 -0.00600 0 0 0
-0.01639 0.00268 -0.00672 0 0 0
-0.01660 0.00396 -0.00730 0 0 0
-0.01767 0.00439 -0.00729 0 0 0
-0.01890 0.00555 -0.00747 0 0 0
-0.01848 0.00588 -0.00733 0 0 0
-0.01821 0.00653 -0.00695 0 0 0
-0.01655 0.00656 -0.00701 0 0 0
-0.01396 0.00713 -0.00699 0 0 0
-0.01468 0.00638 -0.00674 0 0 0
-0.01321 0.00635 -0.00671 0 0 0
-0.01506 0.00442 -0.00643 0 0 0
-0.01611 0.00518 -0.00699 0 0 0
-0.01606 0.00562 -0.00720 0 0 0
-0.01685 0.00502 -0.00705 0 0 0
-0.01744 0.00380 -0.00721 0 0 0
-0.01679 0.00382 -0.00753 0 0 0
-0.01519 0.00410 -0.00768 0 0 0
-0.01272 0.00413 -0.00747 0 0 0
-0.01164 0.00354 -0.00747 0 0 0
-0.01021 0.00476 -0.00727 0 0 0
-0.01100 0.00283 -0.00712 0 0 0
-0.00988 0.00448 -0.00711 0 0 0
-0.01040 0.00491 -0.00641 0 0 0
-0.01169 0.00468 -0.00627 0 0 0
-0.01281 0.00536 -0.00603 0 0 0
-0.01543 0.00415 -0.00606 0 0 0
-0.01568 0.00422 -0.00647 0 0 0
-0.01586 0.00488 -0.00646 0 0 0
-0.01791 0.00372 -0.00676 0 0 0
-0.01699 0.00439 -0.00718 0 0 0
-0.01672 0.00190 -0.00737 0 0 0
-0.01325 0.00368 -0.00803 0 0 0
-0.01301 0.00247 -0.00751 0 0 0
-0.01287 0.00131 -0.00804 0 0 0
-0.01187 0.00164 -0.00793 0 0 0
-0.01073 0.00237 -0.00786 0 0 0
-0.01020 0.00303 -0.00713 0 0 0
-0.01293 0.00096 -0.00693 0 0 0
-0.01235 0.00237 -0.00739 0 0 0
-0.01000 0.00346 -0.00732 0 0 0
-0.01067 0.00448 -0.00652 0 0 0
-0.01613 0.00106 -0.00576 0 0 0
-0.02029 -0.00230 -0.00656 0 0 0
-0.01820 -0.00023 -0.00743 0 0 0
-0.01688 -0.00029 -0.00774 0 0 0
-0.01384 0.00082 -0.00806 0 0 0
-0.01197 0.00022 -0.00815 0 0 0
-0.01136 0.00135 -0.00818 0 0 0
-0.01179 0.00212 -0.00797 0 0 0
-0.01425 0.00112 -0.00737 0 0 0
-0.01412 0.00196 -0.00765 0 0 0
-0.01415 0.00300 -0.00728 0 0 0
-0.01519 0.00154 -0.00722 0 0 0
-0.01425 0.00284 -0.00729 0 0 0
-0.01499 0.00153 -0.00726 0 0 0
-0.01414 0.00206 -0.00756 0 0 0
-0.01502 0.00121 -0.00746 0 0 0
-0.01566 -0.00008 -0.00777 0 0 0
-0.01458 0.00060 -0.00807 0 0 0
-0.01433 0.00043 -0.00799 0 0 0
-0.01492 -0.00040 -0.00799 0 0 0
-0.01579 -0.00103 -0.00795 0 0 0
-0.01468 -0.00072 -0.00837 0 0 0
-0.01305 -0.00006 -0.00792 0 0 0
-0.01271 -0.00078 -0.00812 0 0 0
-0.01230 0.00019 -0.00797 0 0 0
-0.01315 -0.00137 -0.00811 0 0 0
-0.01268 0.00029 -0.00811 0 0 0
-0.01454 -0.00028 -0.00771 0 0 0
-0.01345 0.00056 -0.00826 0 0 0
-0.01154 0.00271 -0.00831 0 0 0
-0.01259 0.00396 -0.00764 0 0 0
-0.01409 0.00251 -0.00747 0 0 0
-0.01366 0.00543 -0.00701 0 0 0
-0.01626 0.00349 -0.00641 0 0 0
-0.01625 0.00411 -0.00651 0 0 0
-0.01722 0.00426 -0.00647 0 0 0
-0.02001 0.00393 -0.00689 0 0 0
-0.02305 0.00391 -0.00729 0 0 0
-0.02302 0.00478 -0.00748 0 0 0
-0.02234 0.00472 -0.00767 0 0 0
-0.02394 0.00452 -0.00831 0 0 0
-0.02458 0.00565 -0.00880 0 0 0
-0.02767 0.00383 -0.00886 0 0 0
-0.02948 0.00310 -0.00964 0 0 0
-0.03149 0.00129 -0.01055 0 0 0
-0.02884 0.00399 -0.01152 0 0 0
-0.02617 0.00869 -0.00913 0 0 0
-0.02412 0.01158 -0.00887 0 0 0
-0.01589 0.01499 -0.00704 0 0 0
-0.01309 0.01006 -0.00673 0 0 0
-0.00952 0.01382 -0.00594 0 0 0
-0.01564 0.00846 -0.00499 0 0 0
-0.01602 0.00804 -0.00567 0 0 0
-0.01867 0.00788 -0.00532 0 0 0
-0.02064 0.00737 -0.00582 0 0 0
-0.02051 0.00870 -0.00571 0 0 0
-0.02546 0.00580 -0.00570 0 0 0
-0.02974 0.00439 -0.00705 0 0 0
-0.03025 0.00370 -0.00803 255 255 255
-0.02497 0.00191 -0.01013 255 255 255
-0.02432 0.00092 -0.01037 255 255 255
-0.02498 0.00120 -0.00989 255 255 255
-0.02474 0.00082 -0.00967 255 255 255
-0.02341 0.00110 -0.00941 255 255 255
-0.02311 0.00107 -0.00877 255 255 255
-0.02373 0.00088 -0.00881 255 255 255
-0.02240 0.00076 -0.00917 255 255 255
-0.02321 0.00088 -0.00917 255 255 255
-0.02394 0.00032 -0.00978 255 255 255
-0.02759 0.00086 -0.00952 255 255 255
-0.02725 0.00074 -0.01044 255 255 255
-0.02651 0.00012 -0.01038 255 255 255
-0.02561 -0.00009 -0.01043 255 255 255
-0.02360 -0.00030 -0.01036 255 255 255
-0.02396 0.00000 -0.01009 255 255 255
-0.02389 -0.00029 -0.01022 255 255 255
-0.02493 0.00026 -0.00974 255 255 255
-0.02628 -0.00034 -0.01025 255 255 255
-0.02542 -0.00003 -0.01069 255 255 255
-0.02411 -0.00094 -0.01075 255 255 255
-0.02391 -0.00090 -0.01037 255 255 255
-0.02468 -0.00109 -0.01076 255 255 255
-0.02535 -0.00113 -0.01127 255 255 255
-0.02650 -0.00123 -0.01159 255 255 255
-0.02655 -0.00047 -0.01157 255 255 255
-0.02837 0.00046 -0.01195 255 255 255
-0.02887 0.00171 -0.01190 255 255 255
-0.02874 0.00224 -0.01194 255 255 255
-0.02956 0.00390 -0.01274 255 255 255
-0.03261 0.00345 -0.01242 255 255 255
-0.03221 0.00698 -0.01065 255 255 255
-0.03285 0.00881 -0.01110 0 0 0
-0.03421 0.01071 -0.01216 0 0 0
-0.03629 0.01566 -0.01321 0 0 0
-0.03930 0.01828 -0.01381 0 0 0
-0.04333 0.02034 -0.01469 0 0 0
-0.04767 0.02309 -0.01599 0 0 0
-0.05276 0.02628 -0.01715 0 0 0
-0.05814 0.02791 -0.01908 0 0 0
-0.06296 0.03077 -0.02038 0 0 0
-0.06970 0.03702 -0.02145 0 0 0
-0.07198 0.03738 -0.02295 0 0 0
-0.07210 0.03891 -0.02493 0 0 0
-0.07325 0.04498 -0.02463 0 0 0
-0.07388 0.04688 -0.02674 0 0 0
-0.07245 0.05067 -0.02929 255 255 255
-0.07436 0.05597 -0.03459 255 255 255
-0.07862 0.06406 -0.03868 255 255 255
-0.08068 0.06833 -0.04127 255 255 255
-0.08281 0.07232 -0.04427 255 255 255
-0.08416 0.07708 -0.04672 0 0 0
-0.08675 0.08120 -0.04912 0 0 0
-0.09108 0.08466 -0.05266 0 0 0
-0.09501 0.08996 -0.05662 0 0 0
-0.09860 0.09585 -0.05978 0 0 0
-0.10112 0.10248 -0.06362 0 0 0
-0.10408 0.10875 -0.06695 0 0 0
-0.10824 0.11371 -0.06974 0 0 0
-0.11179 0.11966 -0.07369 0 0 0
-0.11553 0.12809 -0.07719 0 0 0
-0.11975 0.13317 -0.08125 0 0 0
-0.12320 0.13591 -0.08569 255 255 255
-0.12992 0.14396 -0.09510 255 255 255
-0.13583 0.15589 -0.10412 255 255 255
-0.13874 0.16153 -0.10882 255 255 255
-0.14120 0.16616 -0.11311 255 255 255
-0.14351 0.16980 -0.11663 0 0 0
-0.14562 0.17275 -0.12090 0 0 0
-0.14729 0.17751 -0.12493 0 0 0
-0.14913 0.17962 -0.12940 0 0 0
-0.15139 0.18102 -0.13442 0 0 0
-0.15252 0.18088 -0.13853 0 0 0
-0.15391 0.18282 -0.14336 0 0 0
-0.15383 0.18513 -0.14671 0 0 0
-0.15257 0.18643 -0.14861 0 0 0
-0.15065 0.18499 -0.15060 0 0 0
-0.14973 0.18368 -0.15293 0 0 0
-0.14817 0.18338 -0.15590 0 0 0
-0.14769 0.18551 -0.15949 0 0 0
-0.14668 0.18764 -0.16567 0 0 0
-0.14625 0.18891 -0.16660 0 0 0
-0.14590 0.19010 -0.16791 0 0 0
-0.14819 0.19498 -0.17160 0 0 0
-0.15067 0.20613 -0.17389 0 0 0
-0.14893 0.20481 -0.17558 255 255 255
-0.14526 0.19915 -0.18119 255 255 255
-0.14401 0.19368 -0.18898 255 255 255
-0.14439 0.19123 -0.19282 255 255 255
-0.14483 0.18966 -0.19787 255 255 255
-0.14578 0.18960 -0.20226 0 0 0
-0.14621 0.18963 -0.20768 0 0 0
-0.14858 0.19375 -0.21455 0 0 0
-0.15153 0.20040 -0.22008 0 0 0
-0.15392 0.20498 -0.22582 0 0 0
-0.15652 0.20930 -0.23182 0 0 0
-0.15923 0.21237 -0.23843 0 0 0
-0.16181 0.21741 -0.24566 0 0 0
-0.16540 0.22443 -0.25279 0 0 0
-0.16770 0.23082 -0.25929 0 0 0
-0.16925 0.23506 -0.26660 0 0 0
-0.17235 0.24834 -0.27580 0 0 0
-0.17628 0.25762 -0.28419 0 0 0
-0.17825 0.26328 -0.29096 0 0 0
-0.18009 0.26615 -0.29650 0 0 0
-0.18042 0.26368 -0.29936 255 255 255
-0.18018 0.26044 -0.30427 255 255 255
-0.17964 0.25829 -0.31577 255 255 255
-0.18032 0.25731 -0.32247 255 255 255
-0.18093 0.25637 -0.32883 255 255 255
-0.18141 0.25516 -0.33516 0 0 0
-0.18143 0.25465 -0.34082 0 0 0
-0.18134 0.25442 -0.34691 0 0 0
-0.18097 0.25527 -0.35200 0 0 0
-0.18081 0.25571 -0.35646 0 0 0
-0.18138 0.25482 -0.36086 0 0 0
-0.18157 0.25318 -0.36631 0 0 0
-0.17964 0.25004 -0.37245 0 0 0
-0.17698 0.24858 -0.37677 0 0 0
-0.17406 0.24706 -0.37861 0 0 0
-0.17047 0.24783 -0.37526 0 0 0
-0.16743 0.25008 -0.36905 0 0 0
-0.16631 0.25401 -0.35761 0 0 0
-0.16708 0.25844 -0.34506 0 0 0
-0.16697 0.25653 -0.35177 0 0 0
-0.16702 0.25701 -0.34955 0 0 0
-0.16588 0.25315 -0.35184 255 255 255
-0.16584 0.25724 -0.35709 255 255 255
-0.16620 0.26166 -0.36033 255 255 255
-0.16555 0.25960 -0.36117 255 255 255
-0.16508 0.25969 -0.36213 255 255 255
-0.16500 0.25955 -0.36354 255 255 255
-0.16513 0.25850 -0.36489 255 255 255
-0.16552 0.25963 -0.36714 255 255 255
-0.16626 0.26162 -0.36877 255 255 255
-0.16667 0.26374 -0.36996 0 0 0
-0.16720 0.26371 -0.37051 0 0 0
-0.16737 0.26216 -0.37069 0 0 0
-0.16782 0.26120 -0.37124 0 0 0
-0.16803 0.26044 -0.37105 0 0 0
-0.16854 0.25993 -0.37155 0 0 0
-0.16919 0.26006 -0.37210 0 0 0
-0.16990 0.26072 -0.37197 0 0 0
-0.17062 0.26123 -0.37179 0 0 0
-0.17147 0.26291 -0.37201 0 0 0
-0.17282 0.26500 -0.37184 0 0 0
-0.17397 0.26601 -0.37106 0 0 0
-0.17513 0.26642 -0.36933 0 0 0
-0.17590 0.26359 -0.36710 0 0 0
-0.17669 0.26378 -0.36642 0 0 0
-0.17801 0.26437 -0.36553 0 0 0
-0.17916 0.26389 -0.36469 0 0 0
-0.18019 0.26436 -0.36370 0 0 0
-0.18094 0.26309 -0.36211 0 0 0
-0.18179 0.26274 -0.36161 0 0 0
-0.18272 0.26247 -0.36032 0 0 0
-0.18306 0.26056 -0.35891 0 0 0
-0.18321 0.25790 -0.35882 0 0 0
-0.18387 0.25964 -0.35759 0 0 0
-0.18419 0.25932 -0.35453 255 255 255
-0.18426 0.25876 -0.35201 255 255 255
-0.18657 0.26241 -0.35383 255 255 255
-0.18734 0.26206 -0.35114 255 255 255
-0.18837 0.26316 -0.35322 255 255 255
-0.18995 0.26425 -0.35394 255 255 255
-0.19043 0.26242 -0.35144 255 255 255
-0.19068 0.26056 -0.35050 255 255 255
-0.19016 0.25877 -0.34721 255 255 255
-0.19049 0.25639 -0.34690 255 255 255
-0.19058 0.25454 -0.34475 255 255 255
-0.18947 0.25381 -0.34107 0 0 0
-0.18890 0.25213 -0.33535 0 0 0
-0.18690 0.24628 -0.32942 0 0 0
-0.18755 0.24749 -0.32848 0 0 0
-0.18841 0.24461 -0.32534 0 0 0
-0.18853 0.24154 -0.32150 0 0 0
-0.18941 0.24461 -0.31780 0 0 0
-0.19193 0.24322 -0.31727 0 0 0
-0.19410 0.24323 -0.31702 0 0 0
-0.19583 0.24224 -0.31576 0 0 0
-0.19568 0.23880 -0.31633 0 0 0
-0.19583 0.23464 -0.31614 0 0 0
-0.19534 0.23429 -0.31491 255 255 255
-0.19519 0.23442 -0.31410 255 255 255
-0.19506 0.23396 -0.31164 255 255 255
-0.19509 0.23244 -0.31056 255 255 255
-0.19506 0.23162 -0.30851 255 255 255
-0.19483 0.23238 -0.30759 255 255 255
-0.19490 0.23208 -0.30770 255 255 255
-0.19503 0.23178 -0.30735 255 255 255
-0.19544 0.23136 -0.30677 255 255 255
-0.19596 0.23219 -0.30574 255 255 255
-0.19585 0.23217 -0.30551 255 255 255
-0.19532 0.23298 -0.30692 255 255 255
-0.19525 0.23392 -0.30869 255 255 255
-0.19592 0.23281 -0.30810 255 255 255
-0.19622 0.23294 -0.30762 255 255 255
-0.19609 0.23342 -0.30826 255 255 255
-0.19613 0.23347 -0.30803 255 255 255
-0.19605 0.23321 -0.30796 255 255 255
-0.19616 0.23199 -0.30771 255 255 255
-0.19635 0.23185 -0.30678 255 255 255
-0.19648 0.23194 -0.30675 255 255 255
-0.19671 0.23214 -0.30644 255 255 255
-0.19650 0.23261 -0.30675 0 0 0
-0.19649 0.23254 -0.30735 0 0 0
-0.19649 0.23258 -0.30777 0 0 0
-0.19649 0.23199 -0.30787 0 0 0
-0.19680 0.23233 -0.30759 0 0 0
-0.19648 0.23191 -0.30759 0 0 0
-0.19660 0.23183 -0.30680 0 0 0
-0.19638 0.23144 -0.30658 0 0 0
-0.19662 0.23039 -0.30556 0 0 0
-0.19693 0.23060 -0.30395 0 0 0
-0.19673 0.23146 -0.30329 0 0 0
-0.19634 0.23228 -0.30358 0 0 0
-0.19621 0.23228 -0.30378 0 0 0
-0.19622 0.23237 -0.30424 0 0 0
-0.19651 0.23205 -0.30449 0 0 0
-0.19641 0.23227 -0.30439 0 0 0
-0.19657 0.23277 -0.30422 0 0 0
-0.19656 0.23256 -0.30482 0 0 0
-0.19668 0.23252 -0.30507 0 0 0
-0.19696 0.23216 -0.30481 0 0 0
-0.19694 0.23196 -0.30463 0 0 0
-0.19688 0.23120 -0.30359 0 0 0
-0.19700 0.23055 -0.30251 0 0 0
-0.19701 0.23051 -0.30169 0 0 0
-0.19712 0.23127 -0.30139 0 0 0
-0.19723 0.23135 -0.30123 0 0 0
-0.19703 0.23119 -0.30121 0 0 0
-0.19879 0.23895 -0.30100 0 0 0
-0.19891 0.24006 -0.30141 0 0 0
-0.20069 0.24801 -0.30081 0 0 0
-0.20078 0.24818 -0.30029 0 0 0
-0.20197 0.25567 -0.30012 0 0 0
-0.20203 0.25528 -0.30050 0 0 0
-0.20168 0.25528 -0.30071 0 0 0
-0.20155 0.25468 -0.30076 0 0 0
-0.20181 0.25539 -0.30168 0 0 0
-0.20191 0.25652 -0.30133 0 0 0
-0.20200 0.25654 -0.30114 0 0 0
-0.20207 0.25626 -0.30074 0 0 0
-0.20230 0.25566 -0.30008 0 0 0
-0.20232 0.25591 -0.30003 0 0 0
-0.20245 0.25554 -0.29992 0 0 0
-0.20220 0.25540 -0.29981 0 0 0
-0.20223 0.25501 -0.30043 0 0 0
-0.20240 0.25488 -0.30014 0 0 0
-0.20236 0.25472 -0.30049 0 0 0
-0.20209 0.25485 -0.30145 0 0 0
-0.20181 0.25485 -0.30212 0 0 0
-0.20194 0.25507 -0.30210 0 0 0
-0.20205 0.25416 -0.30275 0 0 0
-0.20201 0.25476 -0.30284 0 0 0
-0.20191 0.25463 -0.30237 0 0 0
-0.20212 0.25500 -0.30232 0 0 0
-0.20209 0.25437 -0.30235 0 0 0
-0.20219 0.25458 -0.30245 0 0 0
-0.20206 0.25418 -0.30375 0 0 0
-0.20220 0.25419 -0.30385 0 0 0
-0.20210 0.25382 -0.30441 0 0 0
-0.20208 0.25474 -0.30576 0 0 0
-0.20218 0.25482 -0.30599 0 0 0
-0.20238 0.25469 -0.30592 0 0 0
-0.20290 0.25514 -0.30527 0 0 0
-0.20399 0.25848 -0.30311 0 0 0
-0.20386 0.25821 -0.30297 0 0 0
-0.20332 0.25987 -0.30574 0 0 0
-0.20294 0.25718 -0.30924 0 0 0
-0.20323 0.25447 -0.31078 0 0 0
-0.20344 0.25561 -0.31154 0 0 0
-0.20394 0.25630 -0.31070 0 0 0
-0.20459 0.25564 -0.30904 0 0 0
-0.20497 0.25336 -0.30658 255 255 255
-0.20521 0.25306 -0.30691 255 255 255
-0.20564 0.25200 -0.30592 255 255 255
-0.20581 0.24590 -0.30169 255 255 255
-0.20547 0.24698 -0.30336 255 255 255
-0.20511 0.24891 -0.30486 255 255 255
-0.20440 0.25055 -0.30500 255 255 255
-0.20373 0.25288 -0.30719 255 255 255
-0.20389 0.25336 -0.30773 255 255 255
-0.20326 0.25268 -0.30802 255 255 255
-0.20280 0.25438 -0.31043 255 255 255
-0.20264 0.25471 -0.31140 0 0 0
-0.20194 0.25764 -0.31410 0 0 0
-0.20154 0.26042 -0.31632 0 0 0
-0.20085 0.26172 -0.31892 0 0 0
-0.20028 0.26504 -0.32384 0 0 0
-0.20212 0.26899 -0.32578 0 0 0
-0.20232 0.27069 -0.32705 0 0 0
-0.20226 0.27342 -0.32891 0 0 0
-0.20223 0.27439 -0.32853 0 0 0
-0.20208 0.27531 -0.32965 0 0 0
-0.20207 0.27543 -0.33117 0 0 0
-0.20171 0.27622 -0.33475 0 0 0
-0.20056 0.28128 -0.34420 0 0 0
-0.19959 0.28439 -0.35066 0 0 0
-0.19840 0.28653 -0.35110 0 0 0
-0.19748 0.28693 -0.34976 0 0 0
-0.19653 0.28978 -0.35170 0 0 0
-0.19534 0.28955 -0.35546 255 255 255
-0.19487 0.28896 -0.35717 255 255 255
-0.19416 0.28860 -0.35898 255 255 255
-0.19106 0.29054 -0.36505 255 255 255
-0.18929 0.29160 -0.36818 255 255 255
-0.18835 0.29184 -0.36972 255 255 255
-0.18736 0.29243 -0.37149 255 255 255
-0.18617 0.29259 -0.37410 0 0 0
-0.18435 0.29299 -0.37772 0 0 0
-0.18294 0.29355 -0.38044 0 0 0
-0.18192 0.29474 -0.38096 0 0 0
-0.18078 0.29457 -0.38340 0 0 0
-0.18023 0.29541 -0.38584 0 0 0
-0.17956 0.29534 -0.38917 0 0 0
-0.17918 0.29458 -0.39252 0 0 0
-0.17888 0.29483 -0.39367 0 0 0
-0.17934 0.29488 -0.39224 0 0 0
-0.17965 0.29470 -0.39145 0 0 0
-0.18023 0.29365 -0.39021 0 0 0
-0.17969 0.29524 -0.38991 0 0 0
-0.17973 0.29680 -0.38830 0 0 0
-0.17928 0.29862 -0.38454 0 0 0
-0.17733 0.30036 -0.38999 255 255 255
-0.17582 0.30228 -0.39445 255 255 255
-0.17288 0.30403 -0.40195 255 255 255
-0.17199 0.30519 -0.40466 255 255 255
-0.17079 0.30692 -0.40673 255 255 255
-0.16947 0.30956 -0.41096 0 0 0
-0.16860 0.31126 -0.41225 0 0 0
-0.16747 0.31220 -0.41301 0 0 0
-0.16650 0.31509 -0.41983 0 0 0
-0.16666 0.31440 -0.42381 0 0 0
-0.16620 0.31341 -0.42404 0 0 0
-0.16516 0.31454 -0.42561 0 0 0
-0.16415 0.31712 -0.42768 0 0 0
-0.16310 0.31816 -0.42987 0 0 0
-0.16202 0.31921 -0.43424 0 0 0
-0.16155 0.32040 -0.43590 0 0 0
-0.16038 0.32202 -0.43790 0 0 0
-0.15922 0.32306 -0.44067 0 0 0
-0.15798 0.32395 -0.44391 0 0 0
-0.15659 0.32440 -0.44608 0 0 0
-0.15566 0.32509 -0.44828 0 0 0
-0.15502 0.32512 -0.44975 255 255 255
-0.15434 0.32533 -0.45169 255 255 255
-0.15381 0.32541 -0.45296 255 255 255
-0.15220 0.32464 -0.45494 255 255 255
-0.15120 0.32389 -0.45647 255 255 255
-0.15031 0.32216 -0.45759 255 255 255
-0.14989 0.32142 -0.45737 0 0 0
-0.14944 0.32147 -0.45788 0 0 0
-0.14901 0.32184 -0.45844 0 0 0
-0.14844 0.32149 -0.45928 0 0 0
-0.14787 0.32149 -0.46070 0 0 0
-0.14732 0.32091 -0.46083 0 0 0
-0.14662 0.32075 -0.46124 0 0 0
-0.14570 0.32105 -0.46264 0 0 0
-0.14487 0.32132 -0.46508 0 0 0
-0.14414 0.32148 -0.46661 0 0 0
-0.14368 0.32120 -0.46696 0 0 0
-0.14271 0.32052 -0.46869 0 0 0
-0.14120 0.32087 -0.47210 255 255 255
-0.13970 0.32124 -0.47463 255 255 255
-0.13692 0.32243 -0.47855 255 255 255
-0.13598 0.32359 -0.47952 255 255 255
-0.13489 0.32409 -0.48024 255 255 255
-0.13399 0.32469 -0.48201 0 0 0
-0.13322 0.32544 -0.48387 0 0 0
-0.13253 0.32632 -0.48592 0 0 0
-0.13184 0.32656 -0.48636 0 0 0
-0.13099 0.32634 -0.48721 0 0 0
-0.12990 0.32579 -0.48855 0 0 0
-0.12883 0.32525 -0.49031 0 0 0
-0.12787 0.32493 -0.49168 0 0 0
-0.12692 0.32479 -0.49301 0 0 0
-0.12595 0.32477 -0.49468 0 0 0
-0.12512 0.32525 -0.49681 0 0 0
-0.12499 0.32631 -0.49847 0 0 0
-0.12564 0.32725 -0.49889 0 0 0
-0.12500 0.32674 -0.50028 255 255 255
-0.12213 0.32760 -0.50492 255 255 255
-0.12129 0.32914 -0.50635 255 255 255
-0.12077 0.33019 -0.50724 255 255 255
-0.11993 0.33068 -0.50858 255 255 255
-0.11909 0.33099 -0.51007 0 0 0
-0.11826 0.33161 -0.51158 0 0 0
-0.11773 0.33184 -0.51276 0 0 0
-0.11732 0.33247 -0.51385 0 0 0
-0.11651 0.33303 -0.51543 0 0 0
-0.11562 0.33297 -0.51686 0 0 0
-0.11489 0.33301 -0.51825 0 0 0
-0.11409 0.33346 -0.51970 0 0 0
-0.11345 0.33381 -0.52086 0 0 0
-0.11234 0.33424 -0.52240 0 0 0
-0.11126 0.33465 -0.52395 0 0 0
-0.11033 0.33519 -0.52525 0 0 0
-0.10928 0.33570 -0.52658 0 0 0
-0.10803 0.33605 -0.52819 255 255 255
-0.10604 0.33751 -0.53085 255 255 255
-0.10548 0.33805 -0.53173 255 255 255
-0.10462 0.33854 -0.53303 255 255 255
-0.10382 0.33892 -0.53424 255 255 255
-0.10311 0.33929 -0.53540 0 0 0
-0.10217 0.33972 -0.53682 0 0 0
-0.10126 0.34012 -0.53813 0 0 0
-0.10052 0.34033 -0.53926 0 0 0
-0.09965 0.34045 -0.54055 0 0 0
-0.09867 0.34075 -0.54203 0 0 0
-0.09787 0.34107 -0.54326 0 0 0
-0.09725 0.34133 -0.54439 0 0 0
-0.09616 0.34152 -0.54608 0 0 0
-0.09510 0.34174 -0.54783 0 0 0
-0.09422 0.34185 -0.54939 0 0 0
-0.09383 0.34229 -0.55048 255 255 255
-0.09076 0.34427 -0.55656 255 255 255
-0.08960 0.34482 -0.55902 255 255 255
-0.08879 0.34493 -0.56043 255 255 255
-0.08789 0.34529 -0.56200 255 255 255
-0.08697 0.34596 -0.56357 0 0 0
-0.08636 0.34634 -0.56477 0 0 0
-0.08557 0.34637 -0.56632 0 0 0
-0.08451 0.34678 -0.56808 0 0 0
-0.08370 0.34741 -0.56940 0 0 0
-0.08289 0.34784 -0.57066 0 0 0
-0.08198 0.34825 -0.57205 0 0 0
-0.08085 0.34848 -0.57357 0 0 0
-0.07962 0.34885 -0.57527 0 0 0
-0.07847 0.34955 -0.57698 0 0 0
-0.07745 0.35008 -0.57836 0 0 0
-0.07633 0.35020 -0.58000 0 0 0
-0.07505 0.35083 -0.58174 0 0 0
-0.07330 0.35175 -0.58409 255 255 255
-0.07017 0.35357 -0.58925 255 255 255
-0.06852 0.35441 -0.59212 255 255 255
-0.06766 0.35477 -0.59359 255 255 255
-0.06676 0.35505 -0.59520 255 255 255
-0.06602 0.35515 -0.59665 0 0 0
-0.06541 0.35527 -0.59807 0 0 0
-0.06452 0.35544 -0.59987 0 0 0
-0.06354 0.35593 -0.60184 0 0 0
-0.06303 0.35544 -0.60306 0 0 0
-0.06266 0.35655 -0.60422 0 0 0
-0.06159 0.35629 -0.60638 0 0 0
-0.06053 0.35627 -0.60850 0 0 0
-0.05986 0.35639 -0.60962 0 0 0
-0.05929 0.35733 -0.61066 0 0 0
-0.05861 0.35779 -0.61207 0 0 0
-0.05781 0.35810 -0.61331 0 0 0
-0.05692 0.35842 -0.61487 255 255 255
-0.05392 0.35947 -0.62017 255 255 255
-0.05194 0.36041 -0.62339 255 255 255
-0.05073 0.36088 -0.62520 255 255 255
-0.04854 0.36157 -0.62872 255 255 255
-0.04747 0.36206 -0.63026 0 0 0
-0.04600 0.36206 -0.63226 0 0 0
-0.04336 0.36276 -0.63607 0 0 0
-0.04265 0.36274 -0.63725 0 0 0
-0.04125 0.36379 -0.63979 0 0 0
-0.04002 0.36437 -0.64257 0 0 0
-0.03978 0.36543 -0.64370 0 0 0
-0.03920 0.36622 -0.64511 0 0 0
-0.03796 0.36693 -0.64790 0 0 0
-0.03692 0.36749 -0.65045 0 0 0
-0.03652 0.36754 -0.65162 0 0 0
-0.03616 0.36791 -0.65267 255 255 255
-0.03320 0.37024 -0.65948 255 255 255
-0.03306 0.37101 -0.66094 255 255 255
-0.03309 0.37111 -0.66185 255 255 255
-0.03304 0.37141 -0.66279 255 255 255
-0.03319 0.37163 -0.66343 255 255 255
-0.03291 0.37167 -0.66439 255 255 255
-0.03248 0.37205 -0.66544 0 0 0
-0.03195 0.37245 -0.66648 0 0 0
-0.03129 0.37284 -0.66757 0 0 0
-0.03047 0.37321 -0.66873 0 0 0
-0.02919 0.37352 -0.67036 0 0 0
-0.02756 0.37364 -0.67217 0 0 0
-0.02649 0.37431 -0.67376 0 0 0
-0.02543 0.37482 -0.67502 0 0 0
-0.02421 0.37509 -0.67644 0 0 0
-0.02302 0.37577 -0.67792 0 0 0
-0.02208 0.37634 -0.67923 255 255 255
-0.01814 0.37876 -0.68496 255 255 255
-0.01644 0.37938 -0.68750 255 255 255
-0.01556 0.37960 -0.68883 255 255 255
-0.01465 0.37984 -0.69026 255 255 255
-0.01388 0.38018 -0.69153 0 0 0
-0.01317 0.38042 -0.69255 0 0 0
-0.01160 0.38070 -0.69525 0 0 0
-0.01074 0.38089 -0.69674 0 0 0
-0.00996 0.38133 -0.69823 0 0 0
-0.00949 0.38166 -0.69924 0 0 0
-0.00891 0.38164 -0.70031 0 0 0
-0.00815 0.38180 -0.70174 0 0 0
-0.00736 0.38209 -0.70311 0 0 0
-0.00677 0.38280 -0.70400 0 0 0
-0.00626 0.38279 -0.70466 0 0 0
-0.00469 0.38291 -0.70664 0 0 0
-0.00388 0.38276 -0.70799 0 0 0
-0.00290 0.38272 -0.70923 255 255 255
0.00145 0.38422 -0.71429 255 255 255
0.00262 0.38496 -0.71570 255 255 255
0.00315 0.38492 -0.71640 255 255 255
0.00373 0.38485 -0.71752 255 255 255
0.00432 0.38514 -0.71883 0 0 0
0.00488 0.38543 -0.71967 0 0 0
0.00531 0.38553 -0.72012 0 0 0
0.00635 0.38555 -0.72144 0 0 0
0.00694 0.38566 -0.72204 0 0 0
0.00743 0.38578 -0.72239 0 0 0
0.00783 0.38605 -0.72270 0 0 0
0.00827 0.38622 -0.72247 0 0 0
0.00826 0.38659 -0.72258 0 0 0
0.00830 0.38663 -0.72261 0 0 0
0.00840 0.38650 -0.72270 0 0 0
0.00841 0.38637 -0.72282 0 0 0
0.00865 0.38623 -0.72322 0 0 0
0.00891 0.38660 -0.72381 0 0 0
0.00905 0.38686 -0.72411 0 0 0
0.00901 0.38731 -0.72460 0 0 0
0.00898 0.38738 -0.72522 0 0 0
0.00918 0.38719 -0.72575 0 0 0
0.00957 0.38662 -0.72674 0 0 0
0.00946 0.38634 -0.72713 0 0 0
0.00958 0.38671 -0.72779 0 0 0
0.00990 0.38677 -0.72861 0 0 0
0.01032 0.38711 -0.72934 255 255 255
0.01417 0.38798 -0.73396 255 255 255
0.01584 0.38822 -0.73593 255 255 255
0.01709 0.38846 -0.73787 255 255 255
0.01842 0.38878 -0.74002 255 255 255
0.01865 0.38896 -0.74077 0 0 0
0.01969 0.39033 -0.74297 0 0 0
0.01999 0.39112 -0.74379 0 0 0
0.01954 0.39106 -0.74398 0 0 0
0.01939 0.39090 -0.74484 0 0 0
0.01980 0.39107 -0.74605 0 0 0
0.02001 0.39127 -0.74705 0 0 0
0.02051 0.39150 -0.74809 0 0 0
0.02106 0.39164 -0.74921 0 0 0
0.02205 0.39202 -0.75108 0 0 0
0.02267 0.39228 -0.75204 0 0 0
0.02283 0.39242 -0.75258 0 0 0
0.02311 0.39251 -0.75335 0 0 0
0.02384 0.39273 -0.75481 0 0 0
0.02432 0.39299 -0.75601 0 0 0
0.02508 0.39375 -0.75797 0 0 0
0.02575 0.39426 -0.75931 255 255 255
0.02756 0.39653 -0.76256 255 255 255
0.02903 0.39591 -0.76556 255 255 255
0.02970 0.39600 -0.76688 255 255 255
0.03043 0.39612 -0.76827 255 255 255
0.03113 0.39617 -0.76959 0 0 0
0.03189 0.39641 -0.77083 0 0 0
0.03250 0.39655 -0.77180 0 0 0
0.03300 0.39659 -0.77273 0 0 0
0.03361 0.39676 -0.77392 0 0 0
0.03425 0.39696 -0.77502 0 0 0
0.03473 0.39722 -0.77578 0 0 0
0.03551 0.39791 -0.77710 0 0 0
0.03594 0.39840 -0.77788 0 0 0
0.03574 0.39799 -0.77795 0 0 0
0.03657 0.39827 -0.77947 0 0 0
0.03781 0.39897 -0.78141 0 0 0
0.03830 0.39938 -0.78218 0 0 0
0.03849 0.39929 -0.78290 0 0 0
0.03950 0.39970 -0.78474 0 0 0
0.03989 0.39971 -0.78554 255 255 255
0.04120 0.40006 -0.78845 255 255 255
0.04297 0.40054 -0.79195 255 255 255
0.04359 0.40066 -0.79303 255 255 255
0.04422 0.40081 -0.79419 255 255 255
0.04498 0.40121 -0.79548 0 0 0
0.04584 0.40169 -0.79697 0 0 0
0.04631 0.40169 -0.79788 0 0 0
0.04659 0.40182 -0.79854 0 0 0
0.04716 0.40221 -0.79971 0 0 0
0.04809 0.40289 -0.80130 0 0 0
0.04851 0.40383 -0.80196 0 0 0
0.04855 0.40376 -0.80218 0 0 0
0.04871 0.40377 -0.80282 0 0 0
0.04917 0.40381 -0.80378 0 0 0
0.04986 0.40416 -0.80502 0 0 0
0.05079 0.40481 -0.80673 0 0 0
0.05138 0.40489 -0.80782 0 0 0
0.05179 0.40501 -0.80863 0 0 0
0.05253 0.40484 -0.80997 0 0 0
0.05289 0.40462 -0.81066 0 0 0
0.05352 0.40432 -0.81187 0 0 0
0.05378 0.40379 -0.81268 0 0 0
0.05443 0.40225 -0.81385 0 0 0
0.05486 0.40255 -0.81478 255 255 255
0.05750 0.40314 -0.81950 255 255 255
0.05851 0.40342 -0.82158 255 255 255
0.05890 0.40326 -0.82228 255 255 255
0.05988 0.40289 -0.82413 255 255 255
0.06063 0.40317 -0.82551 0 0 0
0.06107 0.40287 -0.82635 0 0 0
0.06193 0.40324 -0.82810 0 0 0
0.06223 0.40320 -0.82870 0 0 0
0.06260 0.40292 -0.82961 0 0 0
0.06294 0.40293 -0.83053 0 0 0
0.06331 0.40304 -0.83138 0 0 0
0.06371 0.40317 -0.83219 0 0 0
0.06423 0.40331 -0.83323 0 0 0
0.06469 0.40357 -0.83423 0 0 0
0.06500 0.40395 -0.83493 0 0 0
0.06528 0.40405 -0.83555 0 0 0
0.06560 0.40438 -0.83649 0 0 0
0.06612 0.40486 -0.83765 0 0 0
0.06646 0.40528 -0.83837 0 0 0
0.06625 0.40546 -0.83845 0 0 0
0.06603 0.40541 -0.83847 0 0 0
0.06584 0.40576 -0.83864 0 0 0
0.06614 0.40590 -0.83937 255 255 255
0.06699 0.40644 -0.84109 255 255 255
0.06750 0.40657 -0.84217 255 255 255
0.06767 0.40650 -0.84276 255 255 255
0.06806 0.40673 -0.84362 255 255 255
0.06846 0.40693 -0.84440 255 255 255
0.06876 0.40706 -0.84509 0 0 0
0.06909 0.40721 -0.84585 0 0 0
0.06943 0.40718 -0.84661 0 0 0
0.06976 0.40700 -0.84733 0 0 0
0.06997 0.40700 -0.84794 0 0 0
0.07028 0.40723 -0.84864 0 0 0
0.07050 0.40742 -0.84926 0 0 0
0.07078 0.40755 -0.84992 0 0 0
0.07087 0.40737 -0.85036 0 0 0
0.07106 0.40711 -0.85089 0 0 0
0.07141 0.40727 -0.85173 0 0 0
0.07212 0.40777 -0.85303 0 0 0
0.07240 0.40806 -0.85355 0 0 0
0.07259 0.40793 -0.85394 0 0 0
0.07286 0.40784 -0.85472 0 0 0
0.07326 0.40796 -0.85566 0 0 0
0.07360 0.40808 -0.85638 0 0 0
0.07392 0.40810 -0.85710 0 0 0
0.07425 0.40811 -0.85789 0 0 0
0.07466 0.40817 -0.85885 0 0 0
0.07518 0.40823 -0.85997 0 0 0
0.07540 0.40825 -0.86057 0 0 0
0.07564 0.40823 -0.86117 0 0 0
0.07579 0.40837 -0.86172 0 0 0
0.07621 0.40847 -0.86267 0 0 0
0.07648 0.40858 -0.86328 255 255 255
0.07714 0.40878 -0.86523 255 255 255
0.07801 0.40904 -0.86731 255 255 255
0.07821 0.40897 -0.86789 255 255 255
0.07844 0.40899 -0.86865 255 255 255
0.07893 0.40923 -0.86975 255 255 255
0.07928 0.40972 -0.87039 0 0 0
0.07944 0.40967 -0.87069 0 0 0
0.07960 0.40959 -0.87119 0 0 0
0.07984 0.40963 -0.87184 0 0 0
0.08007 0.40951 -0.87237 0 0 0
0.08031 0.40954 -0.87305 0 0 0
0.08065 0.40980 -0.87380 0 0 0
0.08089 0.40997 -0.87432 0 0 0
0.08106 0.40995 -0.87489 0 0 0
0.08150 0.40984 -0.87580 0 0 0
0.08175 0.40988 -0.87643 0 0 0
0.08204 0.40996 -0.87712 0 0 0
0.08237 0.41015 -0.87790 0 0 0
0.08262 0.41030 -0.87852 0 0 0
0.08278 0.41027 -0.87896 0 0 0
0.08292 0.41035 -0.87975 0 0 0
0.08293 0.41059 -0.88008 0 0 0
0.08295 0.41075 -0.88045 0 0 0
0.08287 0.41077 -0.88110 0 0 0
0.08311 0.41098 -0.88190 0 0 0
0.08343 0.41137 -0.88272 0 0 0
0.08338 0.41126 -0.88290 0 0 0
0.08379 0.41143 -0.88406 0 0 0
0.08415 0.41147 -0.88489 0 0 0
0.08441 0.41160 -0.88560 255 255 255
0.08521 0.41188 -0.88759 255 255 255
0.08594 0.41197 -0.88931 255 255 255
0.08616 0.41191 -0.88985 255 255 255
0.08665 0.41197 -0.89120 255 255 255
0.08691 0.41200 -0.89193 255 255 255
0.08725 0.41210 -0.89278 255 255 255
0.08756 0.41221 -0.89346 0 0 0
0.08783 0.41213 -0.89399 0 0 0
0.08809 0.41197 -0.89468 0 0 0
0.08892 0.41229 -0.89663 0 0 0
0.08918 0.41247 -0.89712 0 0 0
0.08939 0.41243 -0.89786 0 0 0
0.08954 0.41248 -0.89829 0 0 0
0.09004 0.41261 -0.89958 0 0 0
0.09033 0.41271 -0.90013 0 0 0
0.09080 0.41261 -0.90127 0 0 0
0.09132 0.41265 -0.90221 0 0 0
0.09151 0.41275 -0.90273 0 0 0
0.09172 0.41278 -0.90320 0 0 0
0.09193 0.41279 -0.90371 0 0 0
0.09219 0.41279 -0.90430 0 0 0
0.09240 0.41279 -0.90488 0 0 0
0.09260 0.41282 -0.90547 0 0 0
0.09296 0.41288 -0.90619 0 0 0
0.09331 0.41284 -0.90681 0 0 0
0.09306 0.41281 -0.90683 0 0 0
0.09343 0.41278 -0.90768 255 255 255
0.09431 0.41321 -0.90935 255 255 255
0.09488 0.41432 -0.91173 255 255 255
0.09503 0.41426 -0.91247 255 255 255
0.09495 0.41327 -0.91193 255 255 255
0.09520 0.41318 -0.91239 255 255 255
0.09538 0.41321 -0.91290 255 255 255
0.09552 0.41315 -0.91319 0 0 0
0.09566 0.41304 -0.91359 0 0 0
0.09613 0.41296 -0.91450 0 0 0
0.09612 0.41295 -0.91453 0 0 0
0.09635 0.41294 -0.91485 0 0 0
0.09675 0.41265 -0.91540 0 0 0
0.09687 0.41246 -0.91574 0 0 0
0.09760 0.41209 -0.91698 0 0 0
0.09751 0.41187 -0.91668 0 0 0
0.09739 0.41186 -0.91668 0 0 0
0.09674 0.41102 -0.91597 0 0 0
0.09615 0.41071 -0.91517 0 0 0
0.09602 0.41072 -0.91517 0 0 0
0.09600 0.41042 -0.91540 0 0 0
0.09605 0.41019 -0.91550 0 0 0
0.09610 0.40989 -0.91571 0 0 0
0.09647 0.41018 -0.91621 0 0 0
0.09656 0.41017 -0.91630 0 0 0
0.09670 0.41009 -0.91645 0 0 0
0.09663 0.40997 -0.91619 0 0 0
0.09665 0.40990 -0.91629 0 0 0
0.09672 0.40993 -0.91645 0 0 0
0.09673 0.40983 -0.91652 0 0 0
0.09668 0.40982 -0.91656 0 0 0
0.09672 0.41005 -0.91677 0 0 0
0.09696 0.41028 -0.91712 0 0 0
0.09706 0.41061 -0.91723 0 0 0
0.09718 0.41066 -0.91742 0 0 0
0.09720 0.41071 -0.91739 0 0 0
0.09724 0.41069 -0.91747 0 0 0
0.09727 0.41071 -0.91750 0 0 0
0.09733 0.41079 -0.91754 0 0 0
0.09721 0.41086 -0.91723 0 0 0
0.09711 0.41079 -0.91702 0 0 0
0.09703 0.41082 -0.91685 0 0 0
0.09705 0.41077 -0.91686 0 0 0
0.09712 0.41068 -0.91708 0 0 0
0.09733 0.41113 -0.91748 0 0 0
0.09741 0.41120 -0.91756 0 0 0
0.09738 0.41126 -0.91748 0 0 0
0.09744 0.41133 -0.91774 0 0 0
0.09769 0.41178 -0.91823 0 0 0
0.09779 0.41177 -0.91839 0 0 0
0.09785 0.41190 -0.91858 0 0 0
0.09785 0.41198 -0.91853 0 0 0
0.09789 0.41198 -0.91869 0 0 0
0.09790 0.41193 -0.91865 0 0 0
0.09782 0.41189 -0.91847 0 0 0
0.09779 0.41183 -0.91839 0 0 0
0.09764 0.41181 -0.91813 0 0 0
0.09761 0.41183 -0.91806 0 0 0
0.09768 0.41186 -0.91815 0 0 0
0.09769 0.41197 -0.91816 0 0 0
0.09774 0.41209 -0.91831 0 0 0
0.09771 0.41213 -0.91827 0 0 0
0.09765 0.41226 -0.91818 0 0 0
0.09759 0.41239 -0.91795 0 0 0
0.09740 0.41235 -0.91764 0 0 0
0.09731 0.41231 -0.91746 0 0 0
0.09732 0.41230 -0.91743 0 0 0
0.09732 0.41228 -0.91742 0 0 0
0.09735 0.41223 -0.91752 0 0 0
0.09744 0.41220 -0.91764 0 0 0
0.09747 0.41216 -0.91767 0 0 0
0.09737 0.41222 -0.91747 0 0 0
0.09735 0.41220 -0.91753 0 0 0
0.09738 0.41218 -0.91758 0 0 0
0.09738 0.41215 -0.91765 0 0 0
0.09731 0.41224 -0.91759 0 0 0
0.09732 0.41228 -0.91762 0 0 0
0.09727 0.41233 -0.91758 0 0 0
0.09723 0.41234 -0.91751 0 0 0
0.09722 0.41233 -0.91751 0 0 0
0.09719 0.41233 -0.91744 0 0 0
0.09720 0.41229 -0.91748 0 0 0
0.09723 0.41232 -0.91759 0 0 0
0.09727 0.41235 -0.91768 0 0 0
0.09730 0.41233 -0.91772 0 0 0
0.09729 0.41230 -0.91772 0 0 0
0.09725 0.41229 -0.91769 0 0 0
0.09726 0.41227 -0.91766 0 0 0
0.09725 0.41229 -0.91765 0 0 0
0.09721 0.41233 -0.91756 0 0 0
0.09719 0.41234 -0.91754 0 0 0
0.09723 0.41239 -0.91758 0 0 0
0.09720 0.41243 -0.91750 0 0 0
0.09716 0.41237 -0.91748 0 0 0
0.09709 0.41233 -0.91739 0 0 0
0.09710 0.41231 -0.91740 0 0 0
0.09713 0.41229 -0.91747 0 0 0
0.09711 0.41234 -0.91745 0 0 0
0.09711 0.41233 -0.91745 255 255 255
0.09712 0.41235 -0.91751 255 255 255
0.09709 0.41235 -0.91741 255 255 255
0.09708 0.41233 -0.91740 255 255 255
0.09714 0.41236 -0.91755 255 255 255
0.09714 0.41235 -0.91752 255 255 255
0.09710 0.41234 -0.91743 255 255 255
0.09707 0.41233 -0.91738 255 255 255
0.09710 0.41234 -0.91742 255 255 255
0.09700 0.41231 -0.91721 255 255 255
0.09713 0.41235 -0.91744 255 255 255
0.09712 0.41236 -0.91745 255 255 255
0.09714 0.41236 -0.91748 255 255 255
0.09712 0.41235 -0.91740 255 255 255
0.09715 0.41237 -0.91747 255 255 255
0.09711 0.41237 -0.91740 255 255 255
0.09710 0.41237 -0.91747 255 255 255
0.09712 0.41238 -0.91748 255 255 255
0.09708 0.41234 -0.91743 255 255 255
0.09708 0.41234 -0.91744 255 255 255
0.09713 0.41234 -0.91751 255 255 255
0.09712 0.41234 -0.91752 255 255 255
0.09713 0.41233 -0.91754 255 255 255
0.09714 0.41233 -0.91756 255 255 255
0.09715 0.41233 -0.91756 255 255 255
0.09715 0.41233 -0.91758 255 255 255
0.09714 0.41232 -0.91756 255 255 255
0.09713 0.41231 -0.91755 255 255 255
0.09714 0.41231 -0.91756 255 255 255
0.09711 0.41230 -0.91752 255 255 255
0.09716 0.41231 -0.91761 255 255 255
0.09718 0.41232 -0.91762 255 255 255
0.09717 0.41231 -0.91761 255 255 255
0.09717 0.41231 -0.91761 255 255 255
0.09716 0.41232 -0.91758 255 255 255
0.09714 0.41230 -0.91759 255 255 255
0.09718 0.41231 -0.91767 255 255 255
0.09722 0.41232 -0.91778 255 255 255
0.09724 0.41231 -0.91779 255 255 255
0.09729 0.41233 -0.91789 255 255 255
0.09729 0.41234 -0.91783 255 255 255
0.09726 0.41235 -0.91778 255 255 255
0.09722 0.41234 -0.91772 255 255 255
0.09720 0.41232 -0.91768 255 255 255
0.09719 0.41229 -0.91766 255 255 255
0.09717 0.41229 -0.91765 255 255 255
0.09719 0.41228 -0.91769 255 255 255
0.09718 0.41228 -0.91768 255 255 255
0.09718 0.41227 -0.91769 255 255 255
0.09723 0.41229 -0.91773 255 255 255
0.09720 0.41227 -0.91768 255 255 255
0.09722 0.41229 -0.91767 255 255 255
0.09723 0.41229 -0.91767 255 255 255
0.09719 0.41228 -0.91763 255 255 255
0.09718 0.41228 -0.91765 255 255 255
0.09721 0.41230 -0.91772 255 255 255
0.09721 0.41230 -0.91773 255 255 255
0.09726 0.41230 -0.91779 255 255 255
0.09728 0.41231 -0.91782 255 255 255
0.09729 0.41231 -0.91783 255 255 255
0.09725 0.41232 -0.91778 255 255 255
0.09724 0.41231 -0.91777 255 255 255
0.09721 0.41231 -0.91775 255 255 255
0.09722 0.41230 -0.91776 255 255 255
0.09722 0.41231 -0.91775 255 255 255
0.09721 0.41230 -0.91773 255 255 255
0.09721 0.41229 -0.91772 255 255 255
0.09719 0.41228 -0.91769 255 255 255
0.09718 0.41228 -0.91768 255 255 255
0.09719 0.41229 -0.91771 255 255 255
0.09713 0.41225 -0.91761 255 255 255
0.09711 0.41225 -0.91761 255 255 255
0.09710 0.41225 -0.91757 255 255 255
0.09703 0.41224 -0.91747 255 255 255
0.09705 0.41224 -0.91757 255 255 255
0.09712 0.41227 -0.91768 255 255 255
0.09718 0.41229 -0.91761 255 255 255
0.09723 0.41225 -0.91750 255 255 255
0.09732 0.41226 -0.91745 255 255 255
0.09746 0.41231 -0.91735 255 255 255
0.09758 0.41238 -0.91730 255 255 255
0.09753 0.41252 -0.91679 255 255 255
0.09744 0.41255 -0.91638 255 255 255
0.09745 0.41252 -0.91612 255 255 255
0.09743 0.41260 -0.91573 255 255 255
0.09709 0.41262 -0.91498 255 255 255
0.09683 0.41264 -0.91437 255 255 255
0.09660 0.41271 -0.91379 255 255 255
0.09659 0.41279 -0.91350 0 0 0
0.09656 0.41290 -0.91309 0 0 0
0.09663 0.41287 -0.91281 0 0 0
0.09668 0.41291 -0.91263 0 0 0
0.09673 0.41293 -0.91240 0 0 0
0.09656 0.41299 -0.91201 0 0 0
0.09665 0.41307 -0.91187 0 0 0
0.09700 0.41306 -0.91204 0 0 0
0.09759 0.41302 -0.91251 0 0 0
0.09770 0.41316 -0.91243 0 0 0
0.09794 0.41329 -0.91242 0 0 0
0.09874 0.41315 -0.91279 0 0 0
0.09977 0.41290 -0.91371 0 0 0
0.10082 0.41289 -0.91484 0 0 0
0.10172 0.41313 -0.91570 0 0 0
0.10231 0.41365 -0.91605 0 0 0
0.10147 0.41425 -0.91506 0 0 0
0.10129 0.41471 -0.91468 0 0 0
0.10165 0.41510 -0.91466 0 0 0
0.10118 0.41564 -0.91406 0 0 0
0.10086 0.41639 -0.91342 0 0 0
0.10028 0.41719 -0.91247 0 0 0
0.09939 0.41808 -0.91137 0 0 0
0.09860 0.41920 -0.91007 0 0 0
0.09754 0.42027 -0.90885 0 0 0
0.09747 0.42118 -0.90845 0 0 0
0.09730 0.42189 -0.90872 0 0 0
0.09713 0.42290 -0.91033 0 0 0
0.09767 0.42318 -0.91169 0 0 0
0.09839 0.42404 -0.91423 0 0 0
0.09829 0.42487 -0.91701 0 0 0
0.09814 0.42538 -0.92129 0 0 0
0.09782 0.42656 -0.92574 0 0 0
0.09787 0.42656 -0.92536 255 255 255
0.09816 0.42655 -0.92500 255 255 255
0.09890 0.42630 -0.92505 255 255 255
0.09919 0.42648 -0.92469 255 255 255
0.09929 0.42647 -0.92458 255 255 255
0.09935 0.42640 -0.92448 255 255 255
0.09938 0.42628 -0.92442 255 255 255
0.09942 0.42623 -0.92454 255 255 255
0.09910 0.42632 -0.92484 255 255 255
0.09919 0.42636 -0.92489 255 255 255
0.09905 0.42633 -0.92489 255 255 255
0.09903 0.42630 -0.92500 255 255 255
0.09902 0.42629 -0.92520 255 255 255
0.09903 0.42626 -0.92531 255 255 255
0.09905 0.42624 -0.92543 255 255 255
0.09894 0.42620 -0.92566 255 255 255
0.09884 0.42627 -0.92568 0 0 0
0.09880 0.42633 -0.92571 0 0 0
0.09811 0.42652 -0.92520 0 0 0
0.09824 0.42642 -0.92526 0 0 0
0.09826 0.42638 -0.92525 0 0 0
0.09833 0.42635 -0.92528 0 0 0
0.09840 0.42633 -0.92530 0 0 0
0.09850 0.42629 -0.92537 0 0 0
0.09815 0.42638 -0.92516 0 0 0
0.09829 0.42634 -0.92515 0 0 0
0.09843 0.42631 -0.92530 0 0 0
0.09841 0.42629 -0.92521 0 0 0
0.09856 0.42630 -0.92528 0 0 0
0.09864 0.42627 -0.92538 0 0 0
0.09868 0.42626 -0.92547 0 0 0
0.09852 0.42629 -0.92533 0 0 0
0.09854 0.42628 -0.92522 0 0 0
0.09845 0.42628 -0.92516 0 0 0
0.09836 0.42632 -0.92508 0 0 0
0.09831 0.42637 -0.92501 0 0 0
0.09831 0.42637 -0.92514 0 0 0
0.09819 0.42641 -0.92505 0 0 0
0.09815 0.42645 -0.92515 0 0 0
0.09816 0.42645 -0.92519 0 0 0
0.09823 0.42647 -0.92510 0 0 0
0.09823 0.42654 -0.92490 0 0 0
0.09833 0.42653 -0.92491 0 0 0
0.09823 0.42652 -0.92471 0 0 0
0.09824 0.42649 -0.92479 0 0 0
0.09808 0.42656 -0.92472 0 0 0
0.09795 0.42661 -0.92465 0 0 0
0.09787 0.42664 -0.92464 0 0 0
0.09806 0.42664 -0.92508 0 0 0
0.09790 0.42675 -0.92515 0 0 0
0.09780 0.42677 -0.92513 0 0 0
0.09777 0.42678 -0.92524 0 0 0
0.09783 0.42676 -0.92541 0 0 0
0.09807 0.42675 -0.92581 0 0 0
0.09836 0.42667 -0.92612 0 0 0
0.09878 0.42649 -0.92629 0 0 0
0.09889 0.42640 -0.92646 0 0 0
0.09890 0.42632 -0.92656 0 0 0
0.09882 0.42629 -0.92673 0 0 0
0.09851 0.42631 -0.92663 0 0 0
0.09839 0.42635 -0.92662 0 0 0
0.09864 0.42627 -0.92715 0 0 0
0.09870 0.42623 -0.92731 0 0 0
0.09859 0.42622 -0.92746 0 0 0
0.09880 0.42626 -0.92744 0 0 0
0.09873 0.42628 -0.92769 0 0 0
0.09859 0.42633 -0.92773 0 0 0
0.09839 0.42618 -0.92766 0 0 0
0.09832 0.42599 -0.92812 0 0 0
0.09827 0.42609 -0.92858 0 0 0
0.09813 0.42615 -0.92862 0 0 0
0.09821 0.42629 -0.92822 0 0 0
0.09830 0.42630 -0.92827 0 0 0
0.09834 0.42632 -0.92836 0 0 0
0.09838 0.42626 -0.92861 0 0 0
0.09845 0.42616 -0.92876 0 0 0
0.09857 0.42601 -0.92913 0 0 0
0.09874 0.42592 -0.92966 0 0 0
0.09883 0.42594 -0.93000 0 0 0
0.09879 0.42599 -0.93004 0 0 0
0.09901 0.42588 -0.93039 0 0 0
0.09929 0.42594 -0.93090 0 0 0
0.09943 0.42585 -0.93136 0 0 0
0.09952 0.42528 -0.93188 0 0 0
0.09948 0.42474 -0.93281 0 0 0
0.09869 0.42342 -0.93362 0 0 0
0.09861 0.42672 -0.93338 0 0 0
0.10151 0.43071 -0.93299 0 0 0
0.10268 0.43373 -0.93362 0 0 0
0.10132 0.43252 -0.93404 0 0 0
0.09941 0.42920 -0.93433 0 0 0
0.09919 0.42950 -0.93460 0 0 0
0.09862 0.43114 -0.93515 0 0 0
0.09864 0.43193 -0.93535 0 0 0
0.09927 0.43296 -0.93532 0 0 0
0.09924 0.43376 -0.93531 0 0 0
0.09961 0.43418 -0.93509 255 255 255
0.09996 0.43586 -0.93491 255 255 255
0.10031 0.43672 -0.93494 255 255 255
0.10047 0.43774 -0.93480 255 255 255
0.10066 0.43770 -0.93474 255 255 255
0.10085 0.43782 -0.93450 255 255 255
0.10071 0.43778 -0.93436 255 255 255
0.10063 0.43777 -0.93450 255 255 255
0.10086 0.43770 -0.93454 255 255 255
0.10103 0.43792 -0.93465 255 255 255
0.10121 0.43749 -0.93470 0 0 0
0.10104 0.43755 -0.93448 0 0 0
0.10087 0.43761 -0.93436 0 0 0
0.10087 0.43737 -0.93454 0 0 0
0.10062 0.43698 -0.93469 0 0 0
0.10094 0.43712 -0.93473 0 0 0
0.10143 0.43765 -0.93463 0 0 0
0.10140 0.43760 -0.93478 0 0 0
0.10140 0.43746 -0.93486 0 0 0
0.10097 0.43712 -0.93494 0 0 0
0.10070 0.43686 -0.93502 0 0 0
0.10086 0.43679 -0.93524 0 0 0
0.10153 0.43730 -0.93536 0 0 0
0.10188 0.43762 -0.93534 0 0 0
0.10155 0.43711 -0.93589 0 0 0
0.10123 0.43690 -0.93624 0 0 0
0.10139 0.43729 -0.93641 0 0 0
0.10171 0.43771 -0.93681 0 0 0
0.10187 0.43785 -0.93717 0 0 0
0.10180 0.43824 -0.93745 0 0 0
0.10198 0.43867 -0.93761 0 0 0
0.10192 0.43848 -0.93784 0 0 0
0.10199 0.44085 -0.93787 0 0 0
0.10192 0.44240 -0.93783 0 0 0
0.10188 0.44229 -0.93780 0 0 0
0.10079 0.44220 -0.93731 0 0 0
0.10104 0.44448 -0.93743 0 0 0
0.09405 0.44563 -0.93820 0 0 0
0.09123 0.44521 -0.93908 0 0 0
0.09124 0.44381 -0.93959 0 0 0
0.09035 0.44194 -0.94032 0 0 0
0.09334 0.43890 -0.94288 0 0 0
0.09183 0.44124 -0.94341 0 0 0
0.09160 0.44092 -0.94302 255 255 255
0.09152 0.44013 -0.94266 255 255 255
0.09131 0.43942 -0.94321 255 255 255
0.10009 0.42964 -0.95044 255 255 255
0.11400 0.41103 -0.96941 255 255 255
0.13840 0.43539 -0.93589 0 0 0
0.16081 0.43196 -0.94055 0 0 0
0.16830 0.42317 -0.94184 0 0 0
0.18820 0.40596 -0.95159 0 0 0
0.21553 0.40137 -0.96473 0 0 0
0.23471 0.39692 -0.98457 0 0 0
0.25916 0.38067 -1.04684 0 0 0
0.24519 0.35700 -1.10996 0 0 0
0.21997 0.34674 -1.17379 0 0 0
0.21408 0.31817 -1.17128 0 0 0
0.20685 0.28096 -1.12572 0 0 0
0.18752 0.25944 -1.08530 0 0 0
0.15981 0.24836 -1.05204 0 0 0
0.04656 0.28703 -0.96195 0 0 0
0.03299 0.31075 -0.94770 0 0 0
0.02533 0.34617 -0.92767 0 0 0
0.01859 0.38542 -0.91634 0 0 0
0.02129 0.42728 -0.91912 0 0 0
0.02207 0.42705 -0.91718 255 255 255
